17.1217 73.7138 0.724481 0.254673 -0.966978 -0.00974285
17.1713 73.7211 1.84444 0.244585 -0.969542 0.0068847
17.1722 73.7154 2.86662 0.256688 -0.966419 -0.0120513
17.1801 73.7069 3.88978 0.261727 -0.965139 0.00225159
17.1819 73.7265 5.07349 0.226906 -0.973669 0.0219579
17.3689 73.7774 6.0741 0.224398 -0.974496 0.00143715
18.3469 73.9999 6.10324 0.209976 -0.9777 0.00367641
19.3465 74.2056 6.07888 0.188721 -0.981938 0.0134388
20.3964 74.4034 6.08916 0.179661 -0.983723 0.00326302
21.4346 74.5424 6.09875 0.0982656 -0.994811 -0.0245896
22.4417 74.6236 6.12751 0.0676502 -0.997662 -0.00949789
23.4888 74.6667 6.0995 -0.00900057 -0.999804 -0.0073761
24.4902 74.6321 6.06469 -0.0527795 -0.998562 -0.00461629
25.5478 74.552 6.12327 -0.105461 -0.994359 -0.0113095
26.699 74.4083 6.12805 -0.150785 -0.988539 -0.00716349
27.79 74.2122 6.12887 -0.205327 -0.978688 0.00330226
28.7903 73.9882 6.1028 -0.240777 -0.97058 -0.000465681
29.845 73.7086 6.1091 -0.267833 -0.963465 0.000907519
30.8495 73.4031 6.10307 -0.30837 -0.951261 -0.00339437
31.8236 73.0684 6.08901 -0.330079 -0.94388 -0.011544
32.8264 72.7063 6.11802 -0.348149 -0.937352 -0.0114999
33.9386 72.2714 6.11693 -0.374811 -0.927073 -0.0071654
34.8925 71.8737 6.10434 -0.393128 -0.919454 -0.00606601
35.926 71.4166 6.09103 -0.416995 -0.908902 0.00296801
36.3161 71.2338 5.34742 -0.425215 -0.905057 -0.0048833
36.3366 71.2385 4.24884 -0.458233 -0.888832 0.000844072
36.307 71.2363 3.21258 -0.453609 -0.890451 0.036558
36.2863 71.2193 2.14593 -0.456471 -0.889721 0.00558463
36.3076 71.2189 1.09215 -0.449113 -0.893252 -0.0199354
36.2907 71.2482 -0.0124075 -0.44249 -0.896546 -0.0198678
36.3213 71.2383 -1.04777 -0.4457 -0.895179 -0.00222453
36.325 71.236 -2.16996 -0.430213 -0.902725 -0.00186573
36.3233 71.2396 -3.35496 -0.422969 -0.906111 -0.00672532
36.3612 71.2282 -4.40141 -0.432845 -0.901456 0.0042982
36.3434 71.2285 -5.4446 -0.420536 -0.907246 -0.000513336
35.8422 71.4653 -6.09387 -0.418079 -0.908393 -0.00565174
34.93 71.8775 -6.1199 -0.407689 -0.913112 0.00404339
33.9413 72.2926 -6.09486 -0.37554 -0.926803 0.00124609
32.8638 72.7258 -6.07991 -0.371239 -0.928534 0.00242184
31.7868 73.1308 -6.13068 -0.336625 -0.941631 0.00324135
30.8318 73.4538 -6.11645 -0.299166 -0.9542 0.00120072
29.8165 73.7404 -6.07123 -0.243729 -0.969827 -0.00254104
28.7323 74.0062 -6.1194 -0.233504 -0.972302 -0.00995395
27.6618 74.2486 -6.12816 -0.201037 -0.979559 -0.00412186
26.5649 74.4306 -6.10679 -0.148433 -0.988915 -0.00321921
25.4486 74.5639 -6.09135 -0.097247 -0.995204 -0.0051066
24.326 74.6505 -6.1115 -0.0610371 -0.9981 0.00323076
23.3192 74.6605 -6.12336 0.0192149 -0.999772 0.000179538
22.1658 74.6129 -6.08745 0.0517041 -0.998655 0.0024086
21.1652 74.5326 -6.08459 0.104613 -0.994513 -0.000731859
19.9509 74.3356 -6.07867 0.181557 -0.983335 -0.00705943
18.9479 74.1381 -6.09715 0.204943 -0.978766 -0.00393587
17.8678 73.8927 -6.09979 0.231255 -0.972891 -0.00211756
17.2144 73.7126 -5.55791 0.256888 -0.966328 0.0147829
17.1866 73.7106 -4.45884 0.267507 -0.963539 -0.00235625
17.1785 73.6979 -3.40339 0.257864 -0.965904 0.0231557
17.1827 73.7156 -2.25827 0.254066 -0.967137 0.00984379
17.1917 73.7185 -1.20472 0.272717 -0.962086 -0.00339167
17.1641 73.7138 -0.147075 0.289658 -0.956986 0.0166105
17.1222 73.7147 0.647227 0.263045 -0.964626 0.00466447
16.2286 73.4539 0.560857 0.294506 -0.955444 0.0174473
16.2372 73.463 1.57185 0.303635 -0.952787 -0.00188013
16.2473 73.458 2.57819 0.281528 -0.959499 -0.010182
16.2556 73.4535 3.66455 0.273068 -0.961945 -0.00450105
16.2484 73.469 4.67714 0.266076 -0.963845 0.0134843
16.2251 73.4787 5.75683 0.298288 -0.954182 -0.0236871
16.2805 73.4799 6.78103 0.302201 -0.952856 -0.0271882
17.1467 73.7219 7.05271 0.246995 -0.969015 -0.0016855
18.1582 73.9588 7.0558 0.229002 -0.973423 4.60575e-06
19.1354 74.1811 7.04049 0.201139 -0.979326 0.0180989
20.1852 74.3695 7.0439 0.170968 -0.985225 0.01012
21.2831 74.5153 7.04393 0.0925535 -0.995706 0.00186369
22.2927 74.6053 7.07489 0.0853756 -0.99633 -0.00499185
23.3384 74.6628 7.05153 0.0140693 -0.999761 0.0119663
24.5181 74.6281 7.03337 -0.0562185 -0.998409 -0.00429313
25.6357 74.5409 7.05887 -0.115293 -0.993245 -0.0130892
26.6317 74.4128 7.05238 -0.141735 -0.989816 -0.0132319
27.6289 74.2456 7.06247 -0.200566 -0.979673 -0.00383887
28.6166 74.026 7.062 -0.237074 -0.971439 -0.00493509
29.6844 73.7495 7.04983 -0.266999 -0.963689 -0.00383384
30.6691 73.4558 7.04289 -0.312184 -0.949981 -0.00877745
31.687 73.1079 7.04404 -0.328971 -0.944331 -0.000905988
32.6698 72.7593 7.06095 -0.344483 -0.938767 -0.00631004
33.6073 72.398 7.06847 -0.368586 -0.929544 -0.00965214
34.5916 71.9965 7.05497 -0.382476 -0.923946 -0.0057411
35.5194 71.6015 7.05388 -0.405409 -0.914084 -0.00356785
36.4622 71.1626 7.05148 -0.438541 -0.898652 -0.00268646
37.1421 70.8203 6.67245 -0.453295 -0.891361 -0.000451775
37.1608 70.8091 5.66645 -0.473151 -0.880978 -0.00144679
37.172 70.8094 4.61962 -0.457836 -0.888992 -0.00893774
37.1939 70.7919 3.61059 -0.464648 -0.885192 0.023171
37.1403 70.7968 2.56376 -0.448654 -0.893562 0.0154979
37.1414 70.7894 1.43729 -0.454975 -0.890452 -0.00915473
37.1374 70.8092 0.406885 -0.472396 -0.881275 -0.0139721
37.1575 70.8119 -0.721216 -0.469044 -0.883168 -0.00313153
37.1945 70.7998 -1.79782 -0.457618 -0.889072 -0.0115953
37.1567 70.8316 -2.89776 -0.450873 -0.892574 -0.00502122
37.2018 70.8193 -4.01285 -0.441936 -0.897031 -0.00529405
37.1914 70.8261 -5.02174 -0.433756 -0.901029 0.00144084
37.193 70.828 -6.08838 -0.434442 -0.900697 -0.00224221
36.9037 70.9762 -7.04497 -0.441643 -0.897191 -0.000345606
35.9639 71.4131 -7.05113 -0.414469 -0.910038 0.00554386
34.9154 71.8844 -7.06238 -0.40927 -0.91241 0.00216973
33.9712 72.2826 -7.04349 -0.370889 -0.92866 -0.00569769
33.0208 72.663 -7.05507 -0.37428 -0.927311 0.00284607
31.9577 73.067 -7.06466 -0.334024 -0.942531 0.00695194
30.9611 73.411 -7.06128 -0.317958 -0.947984 0.0138174
29.9054 73.7234 -7.02212 -0.250436 -0.968086 -0.00953521
28.8998 73.9726 -7.04488 -0.235919 -0.971766 -0.00356378
27.7444 74.2271 -7.05925 -0.199202 -0.979813 0.0168897
26.6092 74.4269 -7.04715 -0.140889 -0.989892 -0.00571426
25.5835 74.5478 -7.04086 -0.0969685 -0.995227 0.00678083
24.5523 74.6348 -7.05316 -0.0714293 -0.997401 0.00948358
23.4377 74.6667 -7.07029 0.0192241 -0.9997 -0.00278124
22.4263 74.6262 -7.04649 0.0450923 -0.99898 -0.00217199
21.4044 74.5492 -7.05074 0.0970992 -0.995011 0.022902
20.4038 74.4164 -7.04856 0.165294 -0.98614 0.0143678
19.3642 74.2285 -7.05063 0.202796 -0.979201 -0.00618578
18.3402 74.0104 -7.03771 0.214102 -0.976808 0.00236506
17.2699 73.7603 -7.04913 0.245635 -0.969278 -0.0128231
16.3043 73.4658 -6.77853 0.298919 -0.953842 -0.0285218
16.3107 73.4451 -5.75699 0.287134 -0.95788 0.00432915
16.2847 73.4492 -4.66748 0.298581 -0.954362 0.00151266
16.2694 73.4347 -3.64042 0.280735 -0.959755 -0.00504533
16.2682 73.4478 -2.62883 0.301143 -0.953518 0.00714414
16.2679 73.4411 -1.5942 0.297364 -0.954653 -0.0142502
16.2634 73.4408 -0.395257 0.289471 -0.957084 0.0140249
16.2324 73.451 0.415317 0.296982 -0.954516 0.0264894
17.6161 73.8388 0.906254 0.243878 -0.969726 -0.01242
18.7642 74.1091 0.904595 0.212487 -0.977029 -0.016259
19.8153 74.3215 0.904054 0.187335 -0.982291 -0.00329223
20.8501 74.4872 0.903806 0.137886 -0.990447 -0.00145359
21.8483 74.6033 0.902611 0.0910472 -0.995837 -0.00432403
23.0642 74.6658 0.904236 0.0236774 -0.999709 0.00451368
24.0998 74.6622 0.905935 -0.0318562 -0.999443 -0.00995749
25.1907 74.6011 0.908647 -0.0821583 -0.996592 -0.00743993
26.2459 74.4803 0.908734 -0.135438 -0.990783 -0.00252655
27.3399 74.3101 0.912137 -0.166266 -0.986071 0.00431219
28.4031 74.0952 0.915774 -0.208018 -0.978125 -0.000439131
29.4222 73.8393 0.919585 -0.25492 -0.966961 0.00135157
30.482 73.5228 0.923033 -0.292682 -0.956206 -0.00267636
31.4628 73.21 0.926336 -0.312399 -0.949949 -0.00178746
32.6314 72.8057 0.930118 -0.341454 -0.939851 0.00947205
33.6154 72.4268 0.933161 -0.369795 -0.929114 -0.000128036
34.5549 72.0406 0.936535 -0.392881 -0.919559 0.00749652
35.612 71.5657 0.937365 -0.433205 -0.901187 -0.0139989
35.6613 71.5419 0.937315 -0.434842 -0.900423 -0.0123151
35.757 71.5051 -0.00851224 -0.416007 -0.909294 -0.0110929
34.7602 71.946 -0.00567096 -0.399439 -0.916752 0.00371553
33.813 72.3445 -0.0040933 -0.373976 -0.927433 0.00304406
32.8216 72.737 -0.00250467 -0.356397 -0.934331 -0.00255441
31.7807 73.1084 -0.00187091 -0.323949 -0.946034 -0.00873853
30.7098 73.4563 -0.00112 -0.299474 -0.954062 -0.00903772
29.6898 73.7631 -0.000827916 -0.268919 -0.963141 -0.00648644
28.6999 74.0215 -0.000882181 -0.240598 -0.970606 -0.00602267
27.599 74.2654 0.000236568 -0.198168 -0.980166 0.00194779
26.5631 74.44 0.000519821 -0.143964 -0.989532 -0.0100126
25.4619 74.5756 0.00144462 -0.102762 -0.994614 -0.0135384
24.3835 74.6523 0.00200544 -0.0468706 -0.998888 -0.00500234
23.344 74.6626 0.00176888 0.0176621 -0.999771 0.0120984
22.2874 74.6324 0.00156268 0.0443786 -0.998876 0.0166457
21.217 74.5364 0.00159672 0.114718 -0.993384 0.00535225
20.1639 74.3814 0.0017752 0.174696 -0.984621 0.00137504
19.0994 74.1838 0.00179025 0.184969 -0.982741 0.00256948
18.0404 73.9537 0.00214404 0.240923 -0.97047 0.0119979
17.6721 73.8567 0.00231687 0.249738 -0.968311 -0.00208682
17.6636 73.8508 -0.901034 0.268999 -0.96313 -0.00460015
18.6976 74.0929 -0.901174 0.209104 -0.977736 0.0175343
19.8428 74.325 -0.9011 0.189386 -0.981885 0.00594525
20.833 74.483 -0.900526 0.126424 -0.99196 -0.00575165
21.9462 74.5979 -0.89999 0.0867541 -0.996155 0.0122138
22.9606 74.6467 -0.900955 0.0213543 -0.999734 0.00867918
23.9779 74.6552 -0.904926 -0.00358437 -0.999987 0.00365513
25.0755 74.6044 -0.90637 -0.0747898 -0.997198 0.001594
26.0826 74.5116 -0.908249 -0.112333 -0.993617 -0.0103371
27.1607 74.3501 -0.911635 -0.173056 -0.984903 -0.00413456
28.2525 74.1302 -0.915956 -0.21255 -0.977149 0.00112821
29.2693 73.8851 -0.919413 -0.248574 -0.968604 -0.004124
30.275 73.5988 -0.923909 -0.290618 -0.956793 -0.00939595
31.2987 73.2755 -0.928952 -0.314993 -0.949059 -0.00810031
32.256 72.9486 -0.933836 -0.334986 -0.942204 -0.00599482
33.2688 72.5658 -0.938896 -0.366118 -0.93053 -0.00850361
34.2442 72.1692 -0.943344 -0.391438 -0.92008 -0.0150928
35.2171 71.7454 -0.949165 -0.40621 -0.913776 -0.00255255
35.8519 71.46 -0.953389 -0.411677 -0.911324 -0.00313738
35.8612 71.4532 -1.89614 -0.422212 -0.906489 0.00378082
34.839 71.9128 -1.88966 -0.407209 -0.913334 0.00110503
33.8097 72.355 -1.88172 -0.385509 -0.922703 0.000949356
32.8126 72.7507 -1.871 -0.339395 -0.940629 -0.00537755
31.7216 73.139 -1.86036 -0.328377 -0.944546 0.000804435
30.708 73.4709 -1.85064 -0.305794 -0.952092 0.00342415
29.7235 73.764 -1.84204 -0.273002 -0.962012 -0.00131279
28.59 74.0563 -1.83228 -0.229341 -0.973314 0.00796062
27.5315 74.2789 -1.82477 -0.185715 -0.982603 0.000956668
26.3842 74.4826 -1.81739 -0.149134 -0.988744 -0.0120456
25.3179 74.5855 -1.81279 -0.0778774 -0.996956 0.00375155
24.2917 74.6489 -1.80912 -0.040786 -0.999144 -0.00696513
23.2011 74.657 -1.80602 0.0189959 -0.99979 -0.00771302
22.1354 74.6162 -1.80467 0.0794368 -0.996809 -0.00786051
21.1308 74.5186 -1.80329 0.108796 -0.994053 -0.004713
19.9973 74.3551 -1.80324 0.161349 -0.986859 0.00870525
18.9647 74.1365 -1.80401 0.220219 -0.975448 -0.00227513
17.8971 73.8998 -1.80519 0.228661 -0.973433 0.0119007
17.6655 73.8417 -1.80537 0.243674 -0.969742 0.014941
17.7085 73.8474 -2.70925 0.234706 -0.972062 0.0027755
18.7171 74.0894 -2.70734 0.223425 -0.974518 -0.0198735
19.8185 74.318 -2.70601 0.177965 -0.984001 0.00839953
20.8727 74.4915 -2.70519 0.148536 -0.988885 0.0065549
21.9373 74.6008 -2.7041 0.0787164 -0.996817 0.0126053
23.107 74.6624 -2.70749 0.0245721 -0.999686 0.00482283
24.1358 74.6542 -2.7117 -0.0390345 -0.999236 0.00186361
25.2059 74.5864 -2.71693 -0.0745614 -0.997178 0.00873329
26.323 74.4777 -2.72505 -0.13495 -0.990846 0.00343814
27.3744 74.3063 -2.73605 -0.179793 -0.983702 0.00207189
28.4438 74.0883 -2.74733 -0.214663 -0.976679 0.00430692
29.6041 73.7953 -2.76005 -0.270825 -0.962616 -0.0050021
30.6471 73.4892 -2.77499 -0.29357 -0.955934 0.00252687
31.6949 73.1493 -2.78947 -0.323429 -0.946236 -0.00556629
32.6842 72.8008 -2.80283 -0.336871 -0.941536 -0.00529205
33.6284 72.4331 -2.8155 -0.388128 -0.921594 -0.00447793
34.7163 71.9653 -2.82894 -0.402857 -0.915263 0.00058444
35.7572 71.4989 -2.83975 -0.414148 -0.910207 0.00215909
35.8501 71.4647 -3.78677 -0.416567 -0.908995 -0.01411
34.7868 71.9358 -3.7742 -0.39924 -0.916843 -0.00235351
33.8362 72.3439 -3.75964 -0.38941 -0.921054 0.00436722
32.849 72.7375 -3.74179 -0.360215 -0.932869 0.000515721
31.9039 73.0808 -3.72286 -0.332378 -0.943102 -0.00915721
30.8786 73.4221 -3.7026 -0.302343 -0.953159 -0.008735
29.8089 73.7426 -3.68224 -0.269861 -0.962887 -0.00483794
28.8114 74.003 -3.66694 -0.219843 -0.975486 0.00982749
27.7327 74.2331 -3.65103 -0.202054 -0.979373 -0.00176606
26.5776 74.4324 -3.63522 -0.149643 -0.988686 0.0103598
25.4906 74.5667 -3.62417 -0.0919079 -0.995763 -0.00293576
24.4819 74.6367 -3.61521 -0.0552853 -0.998431 -0.00887285
23.4337 74.6661 -3.60912 -0.000305777 -0.999946 0.0103551
22.3347 74.6259 -3.60666 0.0515537 -0.998665 0.00320553
21.2447 74.5392 -3.60519 0.111476 -0.993729 -0.00866242
20.189 74.3779 -3.60606 0.161303 -0.986902 0.00223297
19.0997 74.177 -3.60919 0.203324 -0.979107 0.00281927
18.1105 73.9488 -3.61244 0.253251 -0.967352 -0.00969315
17.7859 73.8626 -3.61334 0.253759 -0.967253 -0.00533661
17.8116 73.8808 -4.5179 0.241755 -0.970331 -0.00364329
18.9195 74.1369 -4.51269 0.21094 -0.977431 0.0115639
19.9229 74.3334 -4.50815 0.185785 -0.982587 -0.00256622
20.9571 74.5087 -4.50505 0.13899 -0.990289 -0.00307476
22.0319 74.6097 -4.50419 0.0663447 -0.997766 0.00777711
23.1361 74.6582 -4.50728 0.0285538 -0.999589 -0.00256168
24.2318 74.6563 -4.51283 -0.0433751 -0.99902 -0.00880816
25.2926 74.5851 -4.5225 -0.0963921 -0.995315 0.00754792
26.3502 74.4596 -4.53676 -0.137295 -0.990504 0.00717623
27.362 74.3057 -4.55331 -0.170039 -0.985403 -0.00819983
28.3913 74.0943 -4.57261 -0.221846 -0.975068 0.00514011
29.4911 73.8239 -4.5936 -0.250637 -0.968018 0.0110985
30.5103 73.5434 -4.61936 -0.289351 -0.957197 -0.00712626
31.5269 73.216 -4.64476 -0.327086 -0.944991 -0.00249141
32.5448 72.8533 -4.67095 -0.359527 -0.933134 -0.000946387
33.5732 72.4467 -4.69514 -0.376044 -0.926581 0.00617803
34.5079 72.0605 -4.71455 -0.393358 -0.919366 -0.00592542
35.5711 71.5923 -4.73316 -0.413353 -0.910525 0.00907933
35.8938 71.4475 -4.73817 -0.416245 -0.90908 0.0176895
32.7426 72.7742 -5.61305 -0.367286 -0.930108 0.000659063
31.7238 73.1522 -5.58004 -0.328173 -0.944616 -0.00147935
30.7726 73.468 -5.55181 -0.294335 -0.955513 -0.0190253
29.697 73.7665 -5.51746 -0.244457 -0.969654 -0.00350081
28.6664 74.0204 -5.48873 -0.235027 -0.971957 0.00791074
27.6334 74.2537 -5.46407 -0.19011 -0.981756 0.00363189
26.5119 74.4377 -5.4407 -0.136453 -0.990643 -0.00276393
25.4916 74.56 -5.42227 -0.108249 -0.994088 0.00841686
24.4055 74.6464 -5.41033 -0.0523307 -0.998629 0.00157515
23.3065 74.6617 -5.40277 0.0168059 -0.99983 -0.00760738
22.2627 74.6191 -5.40025 0.0481426 -0.998837 0.00260134
21.2524 74.5535 -5.40179 0.10594 -0.994083 -0.0239776
20.1499 74.3728 -5.40647 0.180641 -0.983524 0.00708563
19.1242 74.1722 -5.41344 0.194873 -0.980828 0.000673687
18.1377 73.9556 -5.42069 0.231011 -0.972943 -0.00401395
17.7202 73.8476 -5.42375 0.252888 -0.96747 0.00700084
17.6646 73.8397 1.80869 0.232251 -0.972615 -0.00891272
18.7627 74.0971 1.80695 0.221641 -0.975107 -0.00650367
19.8554 74.3272 1.80554 0.19046 -0.981651 -0.00924244
20.8812 74.494 1.80528 0.14552 -0.989347 -0.00403756
21.9241 74.6064 1.80695 0.073466 -0.997247 0.010096
23.1372 74.6643 1.80816 0.00634951 -0.999919 -0.0109953
24.256 74.6499 1.81168 -0.0402511 -0.999096 -0.0136896
25.4045 74.5841 1.81349 -0.0906148 -0.99588 0.0033206
26.4784 74.4456 1.81999 -0.15125 -0.988484 0.00482956
27.5797 74.268 1.82541 -0.171799 -0.985131 -0.00125483
28.5759 74.0577 1.83323 -0.235177 -0.97189 -0.0110175
29.6356 73.7735 1.84096 -0.279091 -0.960263 -0.00186288
30.7223 73.446 1.84881 -0.298628 -0.954367 0.00206679
31.8677 73.0723 1.85786 -0.321351 -0.946936 -0.00673797
32.9095 72.7004 1.86596 -0.34692 -0.937892 -0.00239599
33.8684 72.3273 1.8725 -0.36774 -0.929906 -0.00654768
34.8064 71.9339 1.87795 -0.405696 -0.914007 -0.00143326
35.7473 71.4911 1.88362 -0.448728 -0.893667 -0.00143957
35.793 71.4819 2.82688 -0.440485 -0.896987 0.0372506
34.7178 71.9741 2.82003 -0.395533 -0.918385 -0.0111042
33.7151 72.3841 2.80949 -0.370482 -0.928837 -0.00245379
32.7072 72.7727 2.79871 -0.34317 -0.939238 -0.00817952
31.6815 73.1366 2.78553 -0.325159 -0.945657 0.0020322
30.7123 73.4506 2.77409 -0.29386 -0.955823 -0.00701678
29.6306 73.7719 2.76099 -0.277721 -0.960662 -0.00058147
28.6514 74.0313 2.75011 -0.236373 -0.971536 0.0156594
27.6291 74.2547 2.73848 -0.178646 -0.983905 -0.00412656
26.6151 74.4262 2.72873 -0.146512 -0.989208 -0.00166048
25.5729 74.5687 2.72021 -0.0996878 -0.995006 -0.00496642
24.56 74.6353 2.71452 -0.0385888 -0.999231 0.00696533
23.487 74.664 2.71096 -0.0111414 -0.999936 0.00180035
22.393 74.6336 2.70781 0.0605628 -0.998163 0.00175575
21.2476 74.5396 2.7063 0.114364 -0.993419 0.00636018
20.1929 74.3835 2.70683 0.170383 -0.985292 -0.0129905
19.1582 74.1786 2.70846 0.213963 -0.976841 0.00141954
18.1356 73.9505 2.71049 0.226648 -0.973977 -0.000522104
17.7913 73.87 2.71135 0.230196 -0.973143 0.00145355
17.8905 73.8881 3.61317 0.230554 -0.97288 -0.0186804
18.9099 74.1214 3.61045 0.21515 -0.976577 -0.00269006
19.9482 74.3341 3.60798 0.17539 -0.984409 -0.0132863
20.9794 74.4984 3.60661 0.134839 -0.990834 -0.00816995
22.0304 74.6092 3.60694 0.0650462 -0.997871 -0.00480636
23.1623 74.6614 3.60789 0.0211967 -0.99977 -0.00329555
24.2578 74.6537 3.61339 -0.0407082 -0.999141 0.00777827
25.2569 74.5955 3.62142 -0.0960008 -0.995308 -0.0120755
26.2595 74.4771 3.6316 -0.144543 -0.989494 -0.00290666
27.3404 74.304 3.64495 -0.184102 -0.98288 -0.00736707
28.4447 74.0767 3.66036 -0.215685 -0.976445 -0.00586219
29.4294 73.8272 3.67705 -0.274174 -0.96168 2.54412e-05
30.4175 73.5358 3.69372 -0.287883 -0.957665 0.000578922
31.4148 73.2259 3.71123 -0.314121 -0.949366 -0.00573136
32.4214 72.8726 3.72999 -0.349144 -0.937023 -0.00935337
33.5054 72.4612 3.74666 -0.359624 -0.933086 -0.00454873
34.5034 72.0618 3.76244 -0.378323 -0.92566 -0.00493076
35.4768 71.6352 3.77583 -0.410232 -0.911959 -0.00645098
35.8568 71.4639 3.78065 -0.413234 -0.910623 -0.00182344
35.7958 71.4828 4.73092 -0.413604 -0.910392 -0.0109054
34.7872 71.9319 4.71406 -0.396751 -0.917837 -0.0127774
33.7519 72.3603 4.69324 -0.369575 -0.929198 -0.0024653
32.7915 72.7311 4.67135 -0.35188 -0.936044 0.00173199
31.6934 73.1316 4.64853 -0.333611 -0.942651 -0.0105687
30.736 73.4424 4.62405 -0.297755 -0.954566 0.0121037
29.6495 73.7657 4.60021 -0.274217 -0.961666 0.00160495
28.626 74.0308 4.57694 -0.233085 -0.972451 0.00317844
27.4807 74.2746 4.55499 -0.194705 -0.980861 0.00151648
26.4769 74.4449 4.53761 -0.151593 -0.988441 -0.00198434
25.3296 74.5832 4.52299 -0.0801364 -0.996774 -0.00444622
24.1922 74.654 4.51113 -0.0302559 -0.999524 0.0061044
23.1469 74.6556 4.50586 0.0161471 -0.999869 -0.000726975
22.0491 74.6102 4.5035 0.069264 -0.997541 -0.0107078
20.9752 74.4992 4.50457 0.139493 -0.990218 0.00299661
19.8848 74.3106 4.50772 0.179056 -0.983816 -0.00675353
18.9031 74.1113 4.51163 0.207394 -0.978207 -0.00991648
17.8464 73.8765 4.51594 0.244556 -0.969627 0.00407898
17.6692 73.8329 4.51664 0.239099 -0.970963 0.00786233
17.8128 73.8772 5.41925 0.224527 -0.974425 0.00915766
18.8421 74.0996 5.41276 0.200664 -0.979619 0.00894617
19.9141 74.3126 5.40636 0.19521 -0.980746 0.00543951
20.9304 74.4895 5.40173 0.141044 -0.989998 0.0032503
22.0007 74.5993 5.39947 0.076476 -0.997004 -0.0115719
23.0352 74.6571 5.40065 0.0368847 -0.999293 0.0072863
24.1032 74.6529 5.40714 -0.0179216 -0.999835 0.00295678
25.1314 74.593 5.41798 -0.0790679 -0.996863 -0.00355377
26.3097 74.4656 5.43862 -0.138399 -0.990375 -0.0016557
27.3133 74.3072 5.45697 -0.184993 -0.982725 -0.00547957
28.3307 74.0961 5.48201 -0.216135 -0.976361 -0.00230573
29.3424 73.8509 5.50956 -0.252459 -0.967599 -0.00398179
30.4339 73.539 5.54067 -0.291088 -0.956649 -0.0095129
31.5534 73.1715 5.57551 -0.323979 -0.946016 -0.00950891
32.4986 72.835 5.6006 -0.342055 -0.9395 -0.0183897
33.4615 72.469 5.62978 -0.37576 -0.926656 -0.0106511
33.6293 72.401 5.63374 -0.37576 -0.926656 -0.0106511
33.6582 72.3892 5.63446 -0.375231 -0.926874 -0.01034
