13.2787 77.6751 -2.71476 0.512657 -0.858405 -0.0180097
13.2881 77.7031 -3.77115 0.508962 -0.860732 -0.00989435
13.2859 77.7072 -4.90738 0.527743 -0.849399 0.00283077
13.3282 77.7382 -5.94014 0.532398 -0.846432 -0.00997569
14.2202 78.2805 -6.10657 0.497357 -0.867525 0.00216371
15.1744 78.7866 -6.1247 0.437307 -0.899285 0.00170659
16.1339 79.2448 -6.09011 0.421964 -0.906612 -0.000632431
17.087 79.6716 -6.12812 0.385736 -0.922562 -0.0093274
18.0909 80.066 -6.09646 0.348762 -0.937187 -0.00676839
19.0653 80.402 -6.10155 0.281482 -0.959503 -0.0110012
20.0873 80.6616 -6.13963 0.214015 -0.976821 0.00432236
21.1445 80.8545 -6.12745 0.146613 -0.989159 0.00733224
22.2086 80.9681 -6.08125 0.0616598 -0.998077 0.00641639
23.2085 81.0125 -6.12171 0.0413464 -0.99909 -0.0104325
24.3208 81.0235 -6.11064 -0.0117274 -0.999927 -0.00303225
25.3388 80.971 -6.12358 -0.0787168 -0.996678 -0.0203632
26.3347 80.86 -6.10158 -0.135118 -0.990735 -0.0127069
27.5106 80.6776 -6.11533 -0.170031 -0.985168 -0.0230777
28.5364 80.4752 -6.12061 -0.204421 -0.978747 -0.0163138
29.5274 80.237 -6.09538 -0.261467 -0.965163 -0.00516178
30.6511 79.9123 -6.12902 -0.302919 -0.952984 0.00785703
31.7163 79.5561 -6.12309 -0.329029 -0.944282 0.0032182
32.7811 79.162 -6.11403 -0.360833 -0.932623 -0.00365005
33.7111 78.7871 -6.12518 -0.390075 -0.920753 -0.00750231
34.7339 78.3459 -6.13137 -0.411135 -0.911553 -0.00564626
35.651 77.9147 -6.11213 -0.43502 -0.900418 0.00241299
36.73 77.3857 -6.09763 -0.453048 -0.891454 0.00354392
37.654 76.9 -6.13043 -0.469777 -0.882783 0.00209924
38.5803 76.4056 -6.12924 -0.4764 -0.879174 0.00729351
39.4533 75.9122 -6.14499 -0.502278 -0.864703 0.00231739
40.3366 75.3904 -6.13115 -0.514093 -0.857723 0.00404329
41.2172 74.8519 -6.08714 -0.530412 -0.847738 -0.00183114
41.7903 74.4911 -5.60694 -0.537952 -0.842971 0.0012167
41.7894 74.4846 -4.48322 -0.537844 -0.842982 -0.0102359
41.7964 74.4747 -3.43284 -0.543681 -0.839291 0.000960481
41.79 74.4763 -2.30226 -0.534886 -0.844889 -0.00756883
41.7603 74.4882 -1.13585 -0.535744 -0.844333 -0.00821076
41.7611 74.4774 -0.0393068 -0.534756 -0.844964 -0.00849203
41.7711 74.4612 1.0193 -0.533614 -0.845659 -0.0103256
41.7361 74.4698 2.1037 -0.532984 -0.846054 -0.0108193
41.7383 74.4577 3.11706 -0.533952 -0.845496 -0.00562824
41.7124 74.4678 4.22294 -0.533388 -0.845852 -0.0053265
41.7277 74.4522 5.34991 -0.533833 -0.845585 -0.00294126
41.3302 74.7012 6.08263 -0.530059 -0.84796 -0.00116007
40.4761 75.2233 6.10405 -0.515707 -0.856745 -0.00586328
39.5984 75.7394 6.10299 -0.501952 -0.864892 -0.0022482
38.7137 76.2512 6.07122 -0.499295 -0.866411 -0.00611492
37.756 76.7843 6.11093 -0.469248 -0.883018 -0.00921197
36.8408 77.264 6.10459 -0.458693 -0.88856 -0.00771796
35.8302 77.7775 6.08547 -0.44111 -0.897453 -0.000740554
34.9005 78.2219 6.11062 -0.41595 -0.909379 -0.00381485
33.9812 78.6265 6.13877 -0.397058 -0.917757 -0.00821574
32.9902 79.0343 6.14941 -0.360035 -0.932864 -0.0118378
31.9677 79.4154 6.12907 -0.331676 -0.94335 -0.00899765
30.9354 79.7747 6.10046 -0.318216 -0.947976 -0.00659583
29.8928 80.078 6.10336 -0.258055 -0.966128 -0.00117462
28.8968 80.3334 6.09481 -0.239582 -0.970875 -0.00169419
27.902 80.5576 6.09584 -0.193982 -0.980898 2.3492e-05
26.6866 80.7596 6.10061 -0.15005 -0.988636 0.0030571
25.537 80.9023 6.11687 -0.0950977 -0.995349 -0.0102913
24.4826 80.9812 6.11068 -0.0523354 -0.998605 0.00693784
23.43 81.0214 6.10686 -0.0180016 -0.999798 0.00893538
22.2836 81.0039 6.0921 0.0696235 -0.997572 -0.00189938
21.2808 80.9138 6.12611 0.103921 -0.994489 0.0123122
20.2943 80.7484 6.10345 0.201687 -0.979222 -0.0189431
19.2214 80.4662 6.11042 0.271299 -0.962459 0.00789571
18.2478 80.1599 6.13162 0.347067 -0.937838 0.00206938
17.2973 79.7878 6.14711 0.380135 -0.924931 1.90647e-05
16.2896 79.3325 6.12316 0.434651 -0.900526 0.011375
15.3673 78.8634 6.1171 0.481573 -0.876396 -0.0041045
14.3974 78.3091 6.10082 0.516994 -0.855984 0.00287114
13.5479 77.785 6.09138 0.525273 -0.85093 -0.00277911
13.348 77.6656 5.14736 0.537727 -0.843112 -0.00073461
13.3581 77.673 4.12754 0.543727 -0.839262 -0.000355968
13.3422 77.6786 2.99978 0.535133 -0.844664 -0.00793824
13.3038 77.6625 1.94865 0.538074 -0.842707 0.0179017
13.3592 77.6706 0.790291 0.53602 -0.843889 0.0223748
13.3341 77.6624 -0.411298 0.52366 -0.851296 -0.0321571
13.3431 77.7023 -1.58323 0.506751 -0.86209 -0.00191646
13.2815 77.6736 -2.56394 0.512665 -0.858399 -0.018023
12.489 77.1837 -2.5104 0.543403 -0.839358 -0.0138067
12.5357 77.1932 -1.46782 0.539737 -0.841743 -0.0124078
12.5435 77.166 -0.457652 0.540418 -0.840777 -0.0310016
12.5676 77.1601 0.734595 0.533401 -0.84573 0.00633052
12.5313 77.1405 1.74325 0.577546 -0.816238 0.00567281
12.5542 77.1624 2.74442 0.575381 -0.817872 0.00472661
12.5613 77.157 3.76482 0.55199 -0.833553 -0.0222843
12.5535 77.149 4.80867 0.556248 -0.831016 -0.000857175
12.5512 77.1445 5.89116 0.558443 -0.829542 0.00112403
12.5957 77.1711 6.90838 0.553163 -0.833017 -0.00737453
13.3881 77.6816 7.07924 0.535923 -0.844257 0.000631068
14.3098 78.259 7.04424 0.508191 -0.861162 0.0092147
15.2382 78.788 7.05027 0.485125 -0.874433 9.06449e-06
16.1893 79.2933 7.05872 0.443058 -0.896353 0.0108333
17.2522 79.7659 7.07885 0.391704 -0.920033 -0.0103816
18.2963 80.1857 7.07147 0.339289 -0.940626 0.0102713
19.2775 80.4881 7.05556 0.26398 -0.964523 0.00251344
20.2617 80.7426 7.04817 0.220868 -0.975057 -0.00989165
21.2657 80.9058 7.0684 0.126772 -0.991729 -0.0186439
22.3643 81.0118 7.04229 0.0481506 -0.998771 0.00701077
23.4787 81.0226 7.06781 -0.0269987 -0.999608 0.00352418
24.4909 80.9873 7.06505 -0.048303 -0.998817 0.00560616
25.5283 80.9029 7.05784 -0.0940397 -0.995519 -0.00967039
26.6754 80.7651 7.04056 -0.137333 -0.990438 -0.00556345
27.7022 80.5917 7.04446 -0.186882 -0.982358 0.00273063
28.7495 80.3701 7.05311 -0.232198 -0.972574 0.00103805
29.7588 80.1095 7.06871 -0.257381 -0.966292 -0.00593057
30.9107 79.7713 7.04404 -0.309982 -0.950727 -0.0053358
31.9758 79.4079 7.05497 -0.330391 -0.943827 -0.00567694
32.9438 79.0434 7.07275 -0.365414 -0.93066 -0.0185612
33.9824 78.6199 7.0685 -0.385901 -0.92249 -0.00959542
34.9487 78.1946 7.04392 -0.413732 -0.910339 -0.0104323
35.9688 77.7043 7.03321 -0.444329 -0.895862 -0.000461781
36.9204 77.2144 7.04872 -0.459151 -0.888328 -0.0073758
37.808 76.7494 7.05112 -0.47478 -0.88001 -0.00929328
38.6823 76.2639 7.02489 -0.488724 -0.872436 -0.00204529
39.5573 75.7609 7.05206 -0.501899 -0.864924 -0.00172916
40.5716 75.1601 7.05158 -0.513534 -0.858054 -0.00510968
41.5523 74.5539 7.05107 -0.535771 -0.844331 -0.00747256
42.4621 73.9737 6.93323 -0.540821 -0.841087 -0.00925052
42.5329 73.9392 5.89474 -0.537143 -0.843452 -0.00811908
42.5271 73.9489 4.84661 -0.53877 -0.842445 -0.00180709
42.5294 73.948 3.8047 -0.541529 -0.840682 0.000393839
42.546 73.94 2.77245 -0.542835 -0.839817 -0.00613273
42.5398 73.9596 1.60878 -0.546742 -0.837191 -0.0135693
42.5606 73.9604 0.508479 -0.543586 -0.839289 -0.0103778
42.5496 73.9765 -0.614609 -0.541355 -0.840764 -0.00705155
42.5512 73.9825 -1.68716 -0.54399 -0.839068 -0.00594472
42.5811 73.9665 -2.73328 -0.546579 -0.837407 0.000102521
42.6019 73.9513 -3.73824 -0.548849 -0.835914 -0.0036858
42.5967 73.9646 -4.7518 -0.546278 -0.837541 -0.0102557
42.6035 73.9691 -5.82911 -0.543734 -0.839257 -0.00117701
42.5628 73.9935 -6.86427 -0.542887 -0.839799 0.00326957
41.7258 74.5316 -7.07339 -0.541486 -0.840708 -0.0013026
40.7897 75.1186 -7.05525 -0.518276 -0.855199 -0.00234473
39.7935 75.7104 -7.09239 -0.507171 -0.861841 0.00211289
38.8924 76.2295 -7.09444 -0.488151 -0.872754 0.0028027
37.9687 76.7315 -7.06406 -0.474247 -0.880391 -0.00112777
37.072 77.2076 -7.06856 -0.461759 -0.887001 -0.00288576
36.1618 77.6704 -7.04293 -0.445997 -0.895022 0.00309955
35.2308 78.12 -7.06397 -0.423063 -0.906089 0.00148776
34.2832 78.5468 -7.06013 -0.399047 -0.916928 -0.00224993
33.3464 78.9447 -7.08227 -0.376335 -0.926467 -0.00554263
32.3353 79.3319 -7.09013 -0.3461 -0.938194 0.000261947
31.2728 79.7086 -7.07209 -0.320124 -0.94737 0.00324186
30.1801 80.0519 -7.06193 -0.288984 -0.957326 0.00302421
29.2141 80.3279 -7.03137 -0.255909 -0.966533 -0.0147321
28.1308 80.5692 -7.05861 -0.194928 -0.98081 0.00194132
27.1265 80.7561 -7.04634 -0.161167 -0.986861 -0.0105507
26.042 80.9114 -7.06298 -0.104229 -0.994502 -0.00119033
25.0281 80.9971 -7.04975 -0.0636732 -0.997897 0.00536514
23.976 81.0395 -7.05692 -0.0237574 -0.999718 0.000290062
22.931 81.0114 -7.07001 0.0422481 -0.998954 -0.0173829
21.8671 80.944 -7.04333 0.0987289 -0.995062 0.0102093
20.8489 80.8025 -7.06789 0.16165 -0.986688 0.0123329
19.8684 80.6067 -7.07617 0.236647 -0.971517 0.00594806
18.8331 80.3226 -7.03626 0.29993 -0.953959 0.00218354
17.8577 79.9862 -7.06892 0.354471 -0.934987 -0.0120678
16.8095 79.5661 -7.06918 0.397505 -0.917487 -0.00286546
15.8095 79.0938 -7.04704 0.434614 -0.900603 -0.0050486
14.8913 78.6314 -7.05959 0.465704 -0.884856 0.00473745
13.9623 78.123 -7.04332 0.498497 -0.866823 0.00398828
12.9556 77.5142 -7.05525 0.53761 -0.843106 -0.00346228
12.5102 77.2157 -6.42038 0.552389 -0.833575 -0.00435496
12.4927 77.2021 -5.31936 0.549689 -0.835368 -0.00134281
12.4746 77.2004 -4.21911 0.544756 -0.838512 0.0117587
12.4834 77.1936 -3.16443 0.54073 -0.840623 -0.029302
12.4882 77.1859 -2.67543 0.543375 -0.83935 -0.015261
13.7073 77.932 -2.89718 0.507097 -0.861655 -0.0200892
14.6627 78.4833 -2.88042 0.493023 -0.869967 -0.00926445
15.6184 78.9925 -2.862 0.45317 -0.891416 0.00371658
16.5933 79.4729 -2.839 0.401735 -0.91569 0.0109654
17.5563 79.8813 -2.81711 0.376324 -0.926488 0.000844193
18.5254 80.2661 -2.79548 0.330558 -0.943785 -0.00082164
19.5594 80.5669 -2.77407 0.258219 -0.966063 0.00666485
20.7011 80.8268 -2.75722 0.184449 -0.982783 -0.0107771
21.8223 80.9794 -2.74138 0.0504355 -0.998555 0.0185455
23.0125 81.0204 -2.73055 0.00322274 -0.999774 0.0210048
24.1032 81.0012 -2.72808 -0.0347515 -0.999389 0.00375518
25.2607 80.9427 -2.72433 -0.0686917 -0.997635 -0.00252774
26.2625 80.8442 -2.72838 -0.127332 -0.991702 -0.0177314
27.2981 80.6728 -2.73716 -0.179207 -0.98367 0.0166797
28.3332 80.4777 -2.74595 -0.197085 -0.980373 0.00513423
29.3649 80.2537 -2.7596 -0.236588 -0.971606 -0.00274162
30.3864 79.9779 -2.77677 -0.283894 -0.95884 0.00545954
31.4078 79.6599 -2.79503 -0.320008 -0.947415 -7.10418e-05
32.3563 79.3192 -2.81248 -0.353942 -0.935256 -0.00461368
33.3211 78.9425 -2.83291 -0.374886 -0.927052 -0.00596606
34.3103 78.5304 -2.85682 -0.390714 -0.920483 0.00724406
35.2347 78.108 -2.87733 -0.422648 -0.90627 -0.00657166
36.1417 77.6759 -2.89828 -0.438746 -0.898601 -0.00427521
37.0814 77.199 -2.91906 -0.462896 -0.886399 -0.00497052
38.0194 76.6983 -2.93909 -0.472803 -0.881147 -0.00610146
39.0048 76.1477 -2.95802 -0.493021 -0.870013 -0.00276505
39.8782 75.6478 -2.97467 -0.501766 -0.864996 -0.00348954
40.8374 75.076 -2.98855 -0.520415 -0.853909 -0.00282079
41.3252 74.7713 -2.99496 -0.526877 -0.849941 -0.00126432
41.363 74.7511 -3.99183 -0.53274 -0.846255 -0.0063878
40.486 75.2971 -3.97664 -0.518296 -0.855174 -0.00680432
39.5654 75.8351 -3.95694 -0.497208 -0.867613 -0.00565513
38.6434 76.3597 -3.93285 -0.493364 -0.869795 -0.00700359
37.7289 76.8618 -3.90971 -0.466376 -0.88458 -0.00345945
36.6936 77.4018 -3.8785 -0.453034 -0.891492 0.00131624
35.5954 77.9424 -3.84441 -0.426922 -0.904273 -0.00536016
34.6053 78.4012 -3.81364 -0.415024 -0.909811 8.51679e-05
33.6613 78.81 -3.78382 -0.378268 -0.92568 -0.00551336
32.5886 79.2344 -3.75517 -0.355236 -0.934776 -0.0014186
31.4936 79.6304 -3.72317 -0.319389 -0.947614 0.00423562
30.5037 79.9403 -3.6995 -0.288045 -0.957595 -0.00643433
29.4934 80.2266 -3.67869 -0.239533 -0.970822 -0.0113735
28.4279 80.4632 -3.65761 -0.200124 -0.979644 -0.0157467
27.2417 80.6898 -3.64126 -0.182688 -0.982999 -0.0183842
26.0511 80.8745 -3.62989 -0.12274 -0.992356 -0.0128334
25.003 80.9569 -3.62711 -0.0597183 -0.998208 -0.00370019
23.9445 81.0023 -3.63009 -0.013845 -0.999904 0.000390225
22.859 81.0057 -3.63823 0.0154269 -0.999725 0.0176601
21.8035 80.9609 -3.65226 0.079869 -0.996794 0.00473898
20.7735 80.8267 -3.66713 0.154061 -0.987994 0.0115367
19.7439 80.6065 -3.69127 0.24201 -0.970255 0.00604677
18.6847 80.3095 -3.72046 0.308652 -0.951174 0.00160885
17.5894 79.8968 -3.75287 0.378692 -0.925522 -0.00117437
16.581 79.4665 -3.78352 0.408688 -0.912655 -0.0059677
15.495 78.9327 -3.81987 0.462213 -0.886724 -0.00890151
14.4766 78.393 -3.8463 0.478439 -0.877974 -0.0160568
13.747 77.9744 -3.86157 0.501273 -0.865225 -0.0105785
13.692 77.9519 -4.83683 0.508165 -0.861244 -0.00522771
14.6347 78.4974 -4.80728 0.476186 -0.879274 -0.0111289
15.5963 78.9908 -4.7746 0.44412 -0.895966 -0.00161252
16.5848 79.4685 -4.73256 0.404456 -0.914557 -0.000801225
17.5058 79.8654 -4.6906 0.371556 -0.928128 0.0228896
18.571 80.2699 -4.65078 0.314009 -0.94937 0.00971285
19.6221 80.5826 -4.61443 0.253343 -0.96736 -0.0056942
20.6238 80.7924 -4.58174 0.169936 -0.98525 0.0201216
21.7541 80.9434 -4.55816 0.0746933 -0.99719 0.00577184
22.8931 80.993 -4.53865 0.029677 -0.999497 0.0111783
23.972 81.0039 -4.52756 -0.00137073 -0.999916 -0.0128823
25.0493 80.9654 -4.52634 -0.0504477 -0.998508 -0.0208892
26.0532 80.8831 -4.53114 -0.0960111 -0.995341 0.00880489
27.0772 80.7345 -4.54233 -0.16731 -0.985861 -0.00927454
28.1012 80.5425 -4.5591 -0.206755 -0.97831 -0.0127309
29.0875 80.3281 -4.58033 -0.224554 -0.974457 -0.00289377
30.1555 80.0527 -4.60846 -0.278522 -0.96042 -0.00430477
31.2426 79.7201 -4.64288 -0.312988 -0.949755 -0.00203047
32.2073 79.3781 -4.67402 -0.351813 -0.936063 -0.00364082
33.2274 78.9859 -4.71166 -0.369916 -0.929065 0.00105471
34.2149 78.5754 -4.74901 -0.39879 -0.916958 0.0123999
35.1802 78.1395 -4.78819 -0.420695 -0.9072 0.00176859
36.1686 77.6659 -4.82484 -0.446339 -0.894864 -0.000370232
37.1454 77.1699 -4.8651 -0.462332 -0.886702 -0.0028856
38.1273 76.6529 -4.90023 -0.471173 -0.882027 0.00502674
39.0105 76.1618 -4.9297 -0.49057 -0.871368 -0.00770287
39.8833 75.6571 -4.95721 -0.50327 -0.864128 -0.00149116
40.7452 75.1419 -4.98141 -0.522996 -0.852334 -0.00119879
41.2749 74.8136 -4.99128 -0.530081 -0.847946 -0.0015146
41.2466 74.8171 -1.9996 -0.530587 -0.84763 -0.000550283
40.2604 75.4174 -1.99242 -0.512077 -0.858937 -0.0022061
39.3325 75.9569 -1.98209 -0.495049 -0.86886 -0.00284919
38.4524 76.4522 -1.96859 -0.484317 -0.874819 -0.0113522
37.5231 76.9565 -1.95574 -0.47208 -0.881504 -0.00957912
36.598 77.4411 -1.94234 -0.454726 -0.890631 -0.00102615
35.652 77.9088 -1.92913 -0.432375 -0.901682 -0.00473247
34.7116 78.3491 -1.91322 -0.417887 -0.908499 0.000529617
33.7831 78.7578 -1.89911 -0.379953 -0.924988 0.00574174
32.7853 79.1542 -1.88342 -0.355981 -0.934491 -0.00193159
31.7047 79.5558 -1.86923 -0.338131 -0.941097 -0.00211968
30.6628 79.8972 -1.85638 -0.290427 -0.95681 -0.0128875
29.6948 80.1679 -1.84365 -0.249858 -0.968261 -0.00648905
28.594 80.4284 -1.83418 -0.212683 -0.977117 -0.00290895
27.6027 80.6256 -1.8271 -0.185054 -0.982728 5.22106e-05
26.4322 80.8181 -1.82013 -0.143818 -0.989604 0.000951522
25.3105 80.9375 -1.81826 -0.0788276 -0.996843 -0.00947218
24.3124 80.9994 -1.81913 -0.0392506 -0.99921 0.0061519
23.237 81.0272 -1.82446 -0.0162942 -0.999864 -0.0025308
22.2142 81.0058 -1.82854 0.0583568 -0.998277 0.00619576
21.2051 80.9174 -1.83428 0.156183 -0.987581 -0.0170778
20.1796 80.7176 -1.84528 0.223537 -0.974687 0.0041703
19.1883 80.4683 -1.85705 0.276004 -0.961031 0.0155562
18.2243 80.1439 -1.86899 0.351759 -0.936079 0.00466639
17.1107 79.701 -1.88586 0.394701 -0.918785 -0.00669767
16.1763 79.2797 -1.89897 0.44879 -0.893634 0.00254144
15.2823 78.8246 -1.91207 0.475644 -0.879554 0.0121927
14.3668 78.3086 -1.92457 0.509105 -0.860692 0.0045423
13.7554 77.9463 -1.93329 0.509735 -0.860321 -0.00428369
13.7589 77.9429 -0.980561 0.517565 -0.855325 -0.0233835
14.6287 78.4638 -0.967007 0.5074 -0.861707 0.00264247
15.581 78.9874 -0.956772 0.444304 -0.895814 0.0105058
16.6858 79.5066 -0.947455 0.409963 -0.911984 -0.0146536
17.6076 79.8955 -0.940465 0.369003 -0.929398 -0.00754734
18.555 80.2637 -0.932979 0.350868 -0.936424 -0.00114073
19.6512 80.5989 -0.925869 0.24267 -0.970107 0.00168738
20.6308 80.8042 -0.920121 0.186167 -0.982501 -0.00585222
21.6364 80.9695 -0.91427 0.114068 -0.993448 0.00708726
22.766 81.0227 -0.910923 0.0198609 -0.999796 0.00363493
23.8735 81.0202 -0.90909 -0.0168257 -0.999855 -0.00249777
24.8843 80.9708 -0.910407 -0.076084 -0.997101 -0.000775282
25.9018 80.8749 -0.911083 -0.113657 -0.99351 -0.00452963
27.0143 80.7239 -0.912418 -0.154845 -0.98793 -0.00417524
28.161 80.5202 -0.916847 -0.205259 -0.978704 -0.00266343
29.1748 80.296 -0.922823 -0.226381 -0.974039 0.000489956
30.1838 80.0359 -0.926695 -0.269411 -0.963024 0.0015637
31.1825 79.7324 -0.934409 -0.303863 -0.952682 -0.00800568
32.1358 79.3962 -0.941664 -0.34315 -0.939272 -0.0039203
33.1041 79.0305 -0.948371 -0.359191 -0.933263 0.00112495
34.0662 78.6395 -0.956461 -0.393232 -0.919411 -0.00723696
34.9973 78.2176 -0.964754 -0.424091 -0.905611 -0.00392799
36.0049 77.7294 -0.97289 -0.438704 -0.898601 -0.00742881
36.9515 77.2495 -0.980252 -0.461438 -0.887074 -0.013239
37.9245 76.7286 -0.989447 -0.476699 -0.879038 -0.00707951
38.8087 76.2453 -0.996963 -0.48387 -0.875089 -0.00939576
39.7259 75.7252 -1.00408 -0.501698 -0.865011 -0.00736123
40.8127 75.0827 -1.01294 -0.512167 -0.858852 -0.00766028
41.2824 74.7898 -1.01617 -0.532923 -0.846161 -0.00211664
41.3088 74.763 -0.030027 -0.532498 -0.846394 -0.00789536
40.4423 75.2957 -0.0253998 -0.513005 -0.858323 -0.0103423
39.4444 75.8809 -0.0194198 -0.497778 -0.86728 -0.0064968
38.528 76.3916 -0.0170885 -0.479998 -0.87726 -0.0040795
37.5251 76.9377 -0.016684 -0.476103 -0.879356 -0.00769782
36.5871 77.4319 -0.0145553 -0.457876 -0.889015 -0.000959812
35.6637 77.8935 -0.012547 -0.440063 -0.897961 -0.00319604
34.7033 78.3522 -0.010435 -0.411781 -0.911234 -0.00946066
33.7845 78.7544 -0.00900504 -0.382538 -0.923885 -0.0100727
32.8504 79.1275 -0.00716047 -0.360542 -0.932742 -0.00124586
31.7754 79.5223 -0.00672032 -0.334142 -0.942507 -0.00553396
30.6821 79.8884 -0.00581162 -0.297497 -0.954686 -0.00834635
29.6842 80.1712 -0.00672168 -0.249861 -0.968273 0.00406051
28.6627 80.4117 -0.00348956 -0.218793 -0.975769 -0.00206066
27.6196 80.6193 -0.00478527 -0.180024 -0.98365 -0.00497354
26.6203 80.7822 -0.00207057 -0.147525 -0.989058 0.000117577
25.6148 80.9029 -0.00250612 -0.088205 -0.996082 0.00633037
24.5502 80.9909 -0.00160393 -0.0626159 -0.998015 -0.00667023
23.4577 81.0316 0.000169544 -0.00477141 -0.999964 0.00708425
22.4079 81.0193 -0.000326259 0.031696 -0.999489 -0.00403137
21.3424 80.9296 -0.00230187 0.15033 -0.98853 0.0144467
20.2106 80.7358 -0.000416849 0.209846 -0.977579 0.0174114
19.0628 80.4398 -0.000497303 0.284716 -0.958597 -0.00538213
18.0756 80.0825 -0.00161535 0.364431 -0.931142 0.0128084
17.1008 79.6928 -0.00240028 0.392843 -0.919591 0.00510202
16.1427 79.2677 -0.00414317 0.417366 -0.908589 0.0165032
15.2157 78.7985 -0.00781837 0.480005 -0.87707 -0.0185458
14.3475 78.2899 -0.00901005 0.524347 -0.85145 -0.00966579
13.7476 77.9108 -0.00826228 0.543381 -0.839324 -0.0165
13.7831 77.9408 0.953078 0.523281 -0.851841 0.0233258
14.7234 78.5019 0.953584 0.489885 -0.871527 -0.021301
15.6885 79.0318 0.94963 0.4765 -0.879063 -0.0140006
16.6863 79.5186 0.943192 0.410172 -0.911907 0.0136121
17.6647 79.9252 0.936146 0.375127 -0.926937 0.00825845
18.6512 80.3073 0.929972 0.343718 -0.939072 0.00153724
19.678 80.6234 0.924268 0.248513 -0.968625 0.002783
20.7205 80.8398 0.91947 0.174988 -0.984443 -0.0158317
21.8492 80.978 0.915518 0.0940842 -0.995497 -0.0115401
22.9053 81.0395 0.908373 0.0148422 -0.999707 0.0191295
23.973 81.0188 0.904994 -0.0361438 -0.999018 -0.0256434
25.0983 80.9456 0.908464 -0.0840188 -0.996445 -0.00613075
26.1099 80.8479 0.905675 -0.110671 -0.99385 -0.00380641
27.2331 80.6828 0.90769 -0.170159 -0.985361 -0.010463
28.2929 80.4859 0.910396 -0.19278 -0.98123 -0.00496461
29.4111 80.237 0.914295 -0.241606 -0.970345 -0.00758093
30.4619 79.9456 0.920969 -0.290858 -0.956424 -0.02558
31.4354 79.6338 0.924723 -0.323978 -0.946042 -0.00649357
32.4031 79.2954 0.928878 -0.336786 -0.941571 -0.00429012
33.4785 78.8755 0.934747 -0.380696 -0.924684 -0.00544499
34.4646 78.4562 0.939016 -0.413701 -0.910322 -0.0128926
35.5149 77.9615 0.94459 -0.435232 -0.900312 -0.00334027
36.4327 77.5072 0.947836 -0.459667 -0.888087 0.00261497
37.3639 77.0185 0.952206 -0.47114 -0.882056 -0.00212043
38.3656 76.4774 0.956707 -0.478071 -0.87832 -0.00159526
39.2722 75.9697 0.960849 -0.493005 -0.87 -0.00681759
40.2133 75.4206 0.963341 -0.514963 -0.857186 -0.00665419
41.1107 74.8739 0.962784 -0.525113 -0.85095 -0.0118482
41.2889 74.7639 0.96201 -0.52755 -0.849448 -0.0113759
41.3247 74.7305 1.95415 -0.530801 -0.847451 -0.00882474
40.4232 75.2856 1.94897 -0.520246 -0.853994 -0.00622071
39.4214 75.8798 1.94124 -0.500102 -0.865956 -0.00436229
38.4991 76.4017 1.93306 -0.485985 -0.873964 0.00259367
37.5588 76.9128 1.92391 -0.471276 -0.881986 -0.000216204
36.6088 77.4137 1.91529 -0.458262 -0.888808 -0.00411261
35.5412 77.9455 1.90224 -0.43187 -0.901928 -0.00374698
34.4766 78.4413 1.88966 -0.413482 -0.910385 -0.015217
33.417 78.8921 1.87675 -0.382032 -0.924118 -0.00764916
32.4014 79.2899 1.86396 -0.348446 -0.937295 0.00791301
31.365 79.6489 1.85249 -0.314608 -0.949203 -0.00586439
30.254 80.0024 1.84289 -0.296992 -0.954873 -0.00355174
29.1937 80.2865 1.83188 -0.242579 -0.970124 -0.00390336
28.0712 80.5264 1.8224 -0.191534 -0.981485 0.00155103
27.0405 80.713 1.81658 -0.168027 -0.9857 -0.0127288
26.0261 80.8462 1.81435 -0.111911 -0.99369 -0.00753863
25.0182 80.9465 1.81529 -0.084374 -0.996354 -0.0126031
24.0086 81.01 1.81709 -0.0379012 -0.999228 -0.0102998
22.9924 81.0347 1.81932 -0.00862442 -0.99989 -0.0120713
21.9357 80.975 1.82445 0.0794396 -0.996838 -0.00196621
20.8663 80.8497 1.83355 0.125763 -0.991857 -0.0200698
19.8814 80.6706 1.84411 0.25195 -0.967672 -0.0114596
18.85 80.37 1.85746 0.29462 -0.955615 -0.000359229
17.8399 80.0037 1.87172 0.362341 -0.932037 -0.00409491
16.7638 79.5563 1.88698 0.40936 -0.912356 0.00557336
15.7934 79.0819 1.90212 0.469422 -0.882893 0.0119237
14.7753 78.5191 1.91152 0.490614 -0.87136 0.00549604
13.8219 77.9795 1.91758 0.501677 -0.865031 0.00645028
13.7443 77.9295 2.89069 0.524538 -0.851387 -0.000612817
14.7071 78.5002 2.87621 0.47681 -0.878765 0.0205747
15.7626 79.0744 2.85535 0.465731 -0.884925 -0.00158747
16.704 79.5371 2.83442 0.422548 -0.906318 0.00636692
17.6899 79.9424 2.81126 0.366903 -0.930259 0.000970267
18.6886 80.3111 2.79055 0.328578 -0.944473 -0.0025796
19.7501 80.6348 2.76842 0.248111 -0.968732 1.1442e-05
20.8523 80.8396 2.74993 0.147252 -0.989098 0.00137415
21.8823 80.969 2.73828 0.100239 -0.994963 0.000421249
23.0562 81.0287 2.72742 -0.016123 -0.999859 0.00461766
24.1158 81.0011 2.72242 -0.0459268 -0.9989 -0.00950097
25.1432 80.9315 2.72165 -0.0888964 -0.996041 -0.000656331
26.1891 80.8292 2.72559 -0.121899 -0.992535 -0.00388121
27.2238 80.6752 2.73075 -0.163519 -0.986533 -0.00371801
28.2421 80.4953 2.73899 -0.19401 -0.980941 -0.0107412
29.2925 80.2562 2.75201 -0.242777 -0.970054 -0.0073562
30.2747 79.992 2.76329 -0.273312 -0.961921 -0.00291526
31.3261 79.6594 2.78012 -0.317804 -0.948156 0.000576855
32.2939 79.3244 2.79669 -0.344616 -0.938719 -0.00688321
33.3028 78.9298 2.81665 -0.377057 -0.926111 -0.0120916
34.2704 78.5231 2.83638 -0.402775 -0.915296 -0.00243021
35.2792 78.0645 2.8548 -0.42071 -0.907176 -0.00592673
36.2349 77.5983 2.87388 -0.450664 -0.892664 -0.0073183
37.2966 77.0483 2.89315 -0.463155 -0.886264 -0.00476764
38.2028 76.5629 2.90914 -0.476559 -0.87911 -0.0075588
39.159 76.0247 2.92431 -0.497464 -0.867465 -0.00586059
40.0709 75.4918 2.93625 -0.515121 -0.857095 -0.00616986
41.026 74.907 2.94426 -0.52513 -0.850996 -0.00670929
41.1503 74.8302 2.94493 -0.531209 -0.847205 -0.00783409
41.2626 74.7522 3.94194 -0.530094 -0.847912 -0.00675264
40.3601 75.3081 3.93204 -0.515755 -0.85669 -0.00893568
39.4708 75.8367 3.91594 -0.507468 -0.86158 -0.0125329
38.4181 76.4338 3.8922 -0.484019 -0.874929 -0.0149982
37.5382 76.9134 3.87118 -0.471894 -0.881587 -0.0110171
36.6485 77.3791 3.85021 -0.458664 -0.888573 -0.00809381
35.6913 77.858 3.82435 -0.436438 -0.89967 -0.0107876
34.6295 78.3563 3.79196 -0.404449 -0.914544 -0.00550871
33.6672 78.7741 3.76778 -0.386632 -0.922172 -0.0106572
32.6765 79.1749 3.74066 -0.352699 -0.935721 -0.00540345
31.5727 79.5765 3.71495 -0.334944 -0.942235 -0.00220028
30.5696 79.8975 3.691 -0.281779 -0.959454 -0.00698551
29.5195 80.1927 3.66836 -0.258274 -0.966041 -0.00777761
28.4724 80.4414 3.65252 -0.206443 -0.978456 -0.00216827
27.4649 80.6308 3.64037 -0.169446 -0.985539 -0.00102957
26.4646 80.79 3.62997 -0.138079 -0.990356 0.0113709
25.3752 80.9137 3.62518 -0.0906398 -0.995884 -0.000225752
24.3538 80.9948 3.62603 -0.0520678 -0.998643 -0.00120468
23.3208 81.0265 3.632 -0.0129173 -0.999912 -0.00287765
22.1981 80.9932 3.64328 0.0665614 -0.997746 0.00852015
21.1967 80.8923 3.65633 0.122119 -0.992515 6.26312e-05
20.1436 80.7147 3.68204 0.202438 -0.979233 0.0110522
19.0819 80.4322 3.70961 0.303491 -0.952803 -0.00777119
18.0362 80.0736 3.73824 0.34228 -0.939584 -0.00502853
17.0043 79.6667 3.77142 0.40421 -0.914655 -0.00457297
16.0656 79.2321 3.8016 0.453943 -0.890999 -0.00751
15.1437 78.7463 3.83037 0.471353 -0.881937 -0.00356697
14.1281 78.163 3.85168 0.525767 -0.850624 -0.00256967
13.7976 77.9543 3.8592 0.534531 -0.845136 -0.00457891
13.9146 78.0191 4.83497 0.522411 -0.852634 -0.0100421
14.8429 78.574 4.80867 0.502166 -0.864744 -0.00691453
15.8027 79.084 4.76825 0.448794 -0.893626 -0.0041076
16.7396 79.5376 4.72748 0.41519 -0.909717 -0.00563474
17.7801 79.9756 4.68492 0.366337 -0.93046 0.00646075
18.7435 80.3159 4.64566 0.304515 -0.952409 -0.0137135
19.7907 80.6308 4.61052 0.261436 -0.965186 -0.00814456
20.7783 80.8397 4.57751 0.148998 -0.98881 -0.00741321
21.9126 80.9695 4.54926 0.091161 -0.995836 0.000336819
22.9936 81.0281 4.53384 -0.00205065 -0.999997 0.00113889
24.1387 81.0005 4.52324 -0.0459408 -0.998852 -0.0135824
25.313 80.9278 4.52174 -0.0874027 -0.996144 0.00763317
26.338 80.8096 4.52766 -0.137545 -0.990474 0.00645396
27.3616 80.6502 4.54161 -0.164624 -0.986356 -0.00054273
28.3625 80.4648 4.55878 -0.207826 -0.978157 -0.00409197
29.3493 80.2282 4.57991 -0.251133 -0.967893 -0.0107072
30.4511 79.9309 4.60955 -0.28082 -0.95972 -0.00876545
31.4072 79.6272 4.6373 -0.325187 -0.945626 -0.00662238
32.3677 79.2831 4.66489 -0.349726 -0.936785 -0.0112241
33.3025 78.9166 4.69849 -0.381436 -0.924357 -0.00844891
34.2446 78.5189 4.73022 -0.394176 -0.918971 -0.0108683
35.1885 78.0903 4.76342 -0.426069 -0.904659 -0.0076358
36.1346 77.6292 4.79941 -0.446403 -0.894821 -0.00445194
37.061 77.1579 4.83397 -0.463221 -0.886226 -0.00540669
38.0674 76.6182 4.86115 -0.48182 -0.876269 0.00126352
38.9809 76.1069 4.89127 -0.499357 -0.866311 -0.0121709
40.0519 75.4822 4.91915 -0.509146 -0.860606 -0.0113261
40.956 74.9365 4.93913 -0.526174 -0.850373 -0.00265042
41.1625 74.8076 4.9426 -0.529741 -0.848154 -0.00318618
33.7907 78.7091 5.65813 -0.390526 -0.920591 -0.00152607
32.7849 79.1202 5.61347 -0.359975 -0.932896 -0.0110966
31.8224 79.4725 5.57642 -0.336926 -0.94146 -0.0115857
30.758 79.8331 5.54015 -0.29858 -0.954315 -0.011556
29.7164 80.1271 5.50019 -0.256053 -0.966656 -0.00351584
28.6692 80.3926 5.47033 -0.243543 -0.96989 0.000113037
27.6376 80.6027 5.44693 -0.185987 -0.982552 -6.65149e-05
26.5155 80.7811 5.42804 -0.142586 -0.989782 0.000471876
25.5159 80.91 5.41772 -0.0993943 -0.995045 -0.00260696
24.3944 80.981 5.41568 -0.0513922 -0.99866 0.0061604
23.3441 81.0221 5.42538 -0.0258906 -0.999625 -0.00896567
22.2993 80.9999 5.44212 0.0707684 -0.997493 0.000231577
21.2712 80.9081 5.46781 0.117834 -0.993005 0.00753692
20.2676 80.7461 5.50607 0.241554 -0.970276 0.0146932
19.2534 80.4704 5.55097 0.276681 -0.960908 0.0101991
18.1775 80.1286 5.59955 0.335418 -0.941982 0.0128129
17.1153 79.7091 5.65685 0.402159 -0.915486 0.0124116
16.8056 79.571 5.67478 0.409048 -0.912457 0.0100977
17.2668 79.7467 -5.64202 0.379223 -0.925302 0.00238142
18.2295 80.1247 -5.58669 0.347502 -0.937585 0.0133235
19.253 80.4679 -5.54258 0.270484 -0.96214 0.0335488
20.2378 80.6992 -5.50576 0.197556 -0.98014 0.0172439
21.2602 80.8825 -5.4683 0.129874 -0.991154 0.0273035
22.2854 80.9686 -5.44466 0.0516989 -0.998631 -0.00801986
23.4192 81.0129 -5.42705 0.0350953 -0.999345 -0.00882107
24.521 81.0071 -5.42029 -0.0246862 -0.999442 -0.0225143
25.5302 80.9506 -5.42248 -0.0876922 -0.995969 -0.0188798
26.5464 80.8205 -5.43396 -0.146911 -0.98906 -0.0133289
27.5635 80.6578 -5.45036 -0.170437 -0.985268 -0.014064
28.6208 80.446 -5.47464 -0.21496 -0.976462 -0.0177235
29.6864 80.1886 -5.50699 -0.248929 -0.968521 -0.00105612
30.7084 79.8936 -5.54628 -0.293883 -0.955838 -0.00257109
31.7396 79.5492 -5.58527 -0.33542 -0.942067 -0.00180425
32.6161 79.2252 -5.62023 -0.35551 -0.934671 0.00142244
32.645 79.2141 -5.62161 -0.360522 -0.932751 0.000598838
