12.449 78.3978 -5.46965 0.557225 -0.830135 -0.019426
12.9358 78.7238 -6.09453 0.543808 -0.839139 -0.00635565
13.9531 79.3618 -6.10799 0.524354 -0.85141 -0.0124143
14.8393 79.8837 -6.08577 0.490856 -0.871187 -0.00909069
15.7542 80.3606 -6.10309 0.447807 -0.894121 -0.00411591
16.7386 80.8483 -6.07201 0.427524 -0.903986 -0.00565438
17.7759 81.3055 -6.07576 0.381203 -0.924447 0.00822432
18.8908 81.7117 -6.09175 0.28985 -0.957058 -0.00523305
19.9756 81.9938 -6.10774 0.184108 -0.982788 -0.00454628
21.0733 82.1691 -6.11301 0.127936 -0.991729 -0.00775714
22.1662 82.2864 -6.11028 0.101945 -0.994705 0.0129751
23.2183 82.33 -6.11576 -0.00937353 -0.999857 -0.0112395
24.2992 82.287 -6.10436 -0.0642835 -0.9979 -0.00800663
25.3234 82.2137 -6.10019 -0.0947342 -0.995348 -0.017553
26.4957 82.0669 -6.11104 -0.138948 -0.990189 -0.0148121
27.6609 81.8916 -6.09541 -0.164202 -0.986155 -0.0228042
28.725 81.6883 -6.10191 -0.199482 -0.979766 -0.0163157
29.7136 81.4623 -6.04317 -0.239253 -0.970833 0.00514562
30.6921 81.1927 -6.09711 -0.289692 -0.95712 3.79627e-06
31.7476 80.8481 -6.11164 -0.32905 -0.944304 -0.00411424
32.7683 80.4751 -6.119 -0.359709 -0.933035 -0.00740956
33.7501 80.0841 -6.11076 -0.390457 -0.920609 -0.00477401
34.7262 79.6635 -6.10591 -0.402006 -0.9156 -0.00619797
35.736 79.1899 -6.09837 -0.436955 -0.899483 0.000798428
36.6376 78.7458 -6.09748 -0.455175 -0.890401 -0.00165091
37.5628 78.2646 -6.12295 -0.469951 -0.88269 -0.00209545
38.5644 77.7271 -6.12003 -0.479165 -0.877707 -0.00523577
39.5385 77.182 -6.13918 -0.499092 -0.866535 -0.00473212
40.4778 76.6361 -6.08814 -0.506457 -0.86224 -0.00599439
41.434 76.0514 -6.08551 -0.533446 -0.845797 -0.00788757
42.3327 75.4812 -6.06541 -0.541099 -0.840899 -0.0093726
42.8422 75.1452 -5.43864 -0.544734 -0.838594 -0.00469908
42.8561 75.1308 -4.43301 -0.544779 -0.83857 -0.00408853
42.8641 75.1168 -3.42411 -0.546357 -0.837517 -0.00771307
42.8425 75.1266 -2.35056 -0.54563 -0.838026 -0.000642823
42.8568 75.1163 -1.33911 -0.546066 -0.837742 -0.000312992
42.8442 75.1179 -0.198006 -0.547689 -0.836619 -0.00944797
42.7994 75.1389 0.816631 -0.55055 -0.834764 -0.00713309
42.8291 75.1122 1.87362 -0.548299 -0.836241 -0.00834678
42.8284 75.1006 2.91326 -0.545464 -0.83806 -0.0111501
42.8433 75.0809 4.06711 -0.542626 -0.839971 -0.00142137
42.8003 75.1109 5.21679 -0.546462 -0.837478 0.00322499
42.5776 75.25 6.11035 -0.540487 -0.841345 -0.00360803
41.6895 75.8113 6.09565 -0.528742 -0.848782 -0.00086545
40.7605 76.3831 6.12662 -0.516727 -0.856117 -0.00381744
39.868 76.9106 6.1118 -0.504919 -0.863111 -0.00920552
38.9571 77.4315 6.09917 -0.49516 -0.868744 -0.00997225
38.0723 77.9274 6.12035 -0.472238 -0.881419 -0.00948242
37.1014 78.443 6.13769 -0.45932 -0.888252 -0.00531904
36.1824 78.9128 6.10359 -0.449751 -0.893151 -0.00256169
35.2781 79.3508 6.11473 -0.428132 -0.903624 -0.0129005
34.3343 79.775 6.08493 -0.404452 -0.914558 0.00160762
33.2959 80.2129 6.1017 -0.375754 -0.926638 -0.0122932
32.3399 80.5792 6.09402 -0.340614 -0.940053 -0.0167823
31.3444 80.9268 6.09835 -0.315288 -0.948944 -0.00633288
30.3163 81.2407 6.0803 -0.270077 -0.962827 -0.00476028
29.3475 81.4956 6.06285 -0.237097 -0.971476 -0.00352655
28.3209 81.7202 6.11041 -0.205822 -0.97859 -0.000110305
27.3217 81.9156 6.1316 -0.183679 -0.982979 0.00377798
26.2456 82.076 6.12987 -0.127344 -0.99182 0.00771276
25.1988 82.1929 6.12895 -0.0954955 -0.995406 0.00692604
24.0084 82.2761 6.08641 -0.0489719 -0.998763 -0.00864121
22.9971 82.3201 6.0775 0.000549916 -0.999863 -0.00850638
21.872 82.2826 6.07443 0.0923937 -0.995633 0.0115412
20.8499 82.1765 6.09767 0.113282 -0.993432 0.0161159
19.7724 81.9971 6.10722 0.236438 -0.970926 0.00733321
18.7965 81.7073 6.10544 0.315224 -0.949006 0.00152422
17.8124 81.3357 6.12009 0.382709 -0.923709 0.015122
16.8444 80.9086 6.12719 0.424066 -0.90554 0.0122952
15.8459 80.4115 6.12215 0.465175 -0.885214 0.00286839
14.8791 79.8756 6.07976 0.496283 -0.868147 0.00462671
13.8958 79.2947 6.08719 0.523034 -0.852311 -0.00129092
12.9763 78.6833 6.11468 0.576508 -0.816977 0.0136807
12.545 78.3719 5.36691 0.584577 -0.811336 0.000583256
12.5596 78.387 4.22073 0.574428 -0.818532 -0.000428266
12.5465 78.3726 3.13563 0.574094 -0.818476 0.0200248
12.5542 78.3492 2.11082 0.584365 -0.81134 0.0156461
12.53 78.3468 0.928986 0.56908 -0.821574 -0.034132
12.5107 78.3565 -0.0783009 0.561288 -0.827614 -0.0034181
12.5153 78.3571 -1.15074 0.575319 -0.817782 0.0155311
12.4933 78.3541 -2.27014 0.580855 -0.813851 -0.0159511
12.4916 78.3804 -3.27744 0.568209 -0.822716 -0.0147045
12.4737 78.3957 -4.43779 0.55479 -0.831732 -0.0207214
12.4537 78.395 -5.2158 0.556367 -0.830687 -0.0202958
11.6672 77.8356 -5.14663 0.602019 -0.798467 0.00459797
11.6812 77.8384 -4.02255 0.578961 -0.815229 -0.0130939
11.7269 77.8321 -2.87494 0.580876 -0.813332 -0.0327647
11.7414 77.8031 -1.85787 0.57457 -0.817967 -0.0282883
11.7566 77.811 -0.787255 0.59243 -0.805555 0.0104205
11.7504 77.8127 0.257544 0.587245 -0.809156 -0.0202498
11.7654 77.7946 1.30142 0.583603 -0.811643 -0.0253761
11.7781 77.7929 2.36047 0.583222 -0.812298 0.00481029
11.7791 77.8151 3.41062 0.601965 -0.798481 0.00809308
11.7554 77.8019 4.41144 0.599872 -0.800096 0.000199845
11.7604 77.8033 5.55469 0.59118 -0.80653 -0.00236955
11.7745 77.8118 6.60096 0.597901 -0.80156 -0.00352325
12.3505 78.2423 7.0548 0.59694 -0.80227 0.00131139
13.3096 78.9284 7.03883 0.569742 -0.821636 0.0170132
14.1654 79.4704 7.03686 0.518071 -0.85527 0.00790824
15.0535 79.9868 7.03556 0.485131 -0.874197 0.0205618
16.0686 80.5333 7.05725 0.458715 -0.888547 4.54275e-05
17.0084 80.9939 7.05349 0.409227 -0.912431 -0.00138732
17.943 81.3969 7.05059 0.378494 -0.92558 -0.00664008
18.9627 81.7566 7.05101 0.288965 -0.957311 -0.00741896
19.9329 82.0333 7.04664 0.259265 -0.965732 0.00532013
21.001 82.2017 7.05507 0.114391 -0.993377 0.0108213
22.2066 82.3049 7.02759 0.0401373 -0.998497 -0.0153838
23.2617 82.2922 7.04328 -0.032652 -0.999374 -0.0132462
24.3658 82.2489 7.03399 -0.0581794 -0.998284 -0.00661763
25.3693 82.1706 7.06235 -0.0916487 -0.995768 -0.00683084
26.374 82.0575 7.06932 -0.126381 -0.991971 -0.00466369
27.5345 81.874 7.06491 -0.177089 -0.984154 -0.00507347
28.5531 81.6733 7.04875 -0.211148 -0.977412 0.00737479
29.6405 81.4165 7.02697 -0.251411 -0.96786 -0.00589023
30.6183 81.1495 7.04342 -0.285286 -0.958438 -0.00260973
31.649 80.8145 7.0416 -0.328295 -0.944517 -0.0101645
32.6999 80.439 7.05766 -0.355193 -0.934738 -0.00656314
33.8071 79.996 7.03964 -0.382628 -0.923883 -0.00492229
34.806 79.5598 7.04122 -0.41923 -0.907773 -0.0105313
35.7999 79.0899 7.04349 -0.434454 -0.900478 -0.0197126
36.7463 78.6197 7.06203 -0.460741 -0.887501 -0.00747745
37.6758 78.1319 7.07471 -0.470949 -0.882116 -0.00889912
38.6507 77.5956 7.0525 -0.490304 -0.871514 -0.00763957
39.6154 77.047 7.05745 -0.496701 -0.867895 -0.00683485
40.6918 76.4179 7.07214 -0.515303 -0.856984 -0.00415967
41.6245 75.847 7.04229 -0.525034 -0.851062 -0.00577749
42.6033 75.23 7.05302 -0.541305 -0.840805 -0.00598689
43.5293 74.617 6.98963 -0.558831 -0.829279 -0.00214746
43.5848 74.5872 5.77325 -0.555443 -0.831534 -0.00579144
43.635 74.5634 4.71094 -0.553707 -0.832703 -0.00301351
43.6437 74.5626 3.59228 -0.54809 -0.836416 -0.00239918
43.6156 74.5874 2.44336 -0.552326 -0.833603 -0.00567309
43.6171 74.5929 1.33173 -0.558135 -0.829745 -0.00294302
43.6107 74.605 0.186568 -0.553891 -0.832525 -0.010267
43.6509 74.59 -0.925165 -0.555557 -0.831447 -0.00710758
43.6309 74.6094 -1.97015 -0.548851 -0.835918 -0.00189266
43.6532 74.5966 -3.01048 -0.547821 -0.836576 -0.00475764
43.6567 74.6054 -4.1496 -0.550331 -0.83492 -0.00647305
43.6581 74.6111 -5.23001 -0.548419 -0.836197 -0.00310361
43.6732 74.608 -6.29209 -0.550748 -0.834648 -0.00617829
43.347 74.829 -7.07453 -0.550546 -0.834784 -0.00588276
42.5045 75.379 -7.02644 -0.542781 -0.839832 -0.00839307
41.4983 76.0206 -7.05093 -0.530209 -0.847813 -0.008028
40.5452 76.6003 -7.0382 -0.508261 -0.8612 -0.00231365
39.6486 77.1269 -7.06466 -0.500907 -0.865457 -0.0077144
38.6572 77.6802 -7.05145 -0.47513 -0.879914 -0.00151291
37.7699 78.1562 -7.06874 -0.470172 -0.882572 -0.00200651
36.729 78.6985 -7.04183 -0.451439 -0.892281 0.00619113
35.7992 79.1626 -7.05613 -0.43375 -0.901031 -0.00217301
34.7808 79.64 -7.05143 -0.409765 -0.912168 0.00117984
33.8255 80.055 -7.05407 -0.391642 -0.920115 -0.00111731
32.7408 80.4903 -7.05512 -0.353826 -0.935308 -0.00237075
31.7248 80.8549 -7.07251 -0.327578 -0.944818 -0.00338439
30.708 81.1886 -7.0614 -0.293615 -0.955913 -0.00259626
29.7462 81.4563 -7.02749 -0.251719 -0.967778 -0.00655469
28.5853 81.7283 -7.07839 -0.209324 -0.977746 -0.014004
27.4437 81.94 -7.0492 -0.163513 -0.986387 -0.0174537
26.3407 82.1078 -7.06772 -0.127886 -0.991576 -0.0165581
25.2585 82.2278 -7.04678 -0.0965458 -0.995326 -0.00225463
24.2457 82.2954 -7.04753 -0.0531693 -0.998585 0.00108664
23.2428 82.3211 -7.04853 0.0167333 -0.999369 0.0313244
22.1801 82.2805 -7.04468 0.0751291 -0.997098 0.0122643
21.089 82.1666 -7.04372 0.143982 -0.989472 0.0146261
19.9999 81.9967 -7.04525 0.173246 -0.984758 0.0135047
18.9876 81.7428 -7.05632 0.307109 -0.951442 0.00807952
18.0306 81.3954 -7.04398 0.369412 -0.929209 0.0102727
17.0444 80.9919 -7.02588 0.412366 -0.911017 -0.00129304
16.0974 80.534 -7.04925 0.445552 -0.895252 -0.00260981
15.1213 80.0389 -7.0455 0.473763 -0.880566 0.00514495
14.1698 79.4995 -7.03711 0.498743 -0.86672 0.0072517
13.3008 78.9727 -7.06044 0.532281 -0.846508 -0.0100473
12.3992 78.3708 -7.02815 0.568511 -0.822674 -0.00188434
11.7136 77.8743 -6.6737 0.598799 -0.800852 -0.00870019
11.6639 77.8311 -5.61448 0.600859 -0.799355 -0.000157238
11.662 77.8309 -5.31007 0.602502 -0.79811 0.00343539
13.0117 78.7598 -4.94693 0.535804 -0.844164 -0.0173662
13.882 79.3043 -4.9113 0.52431 -0.851527 0.000783774
14.8231 79.8687 -4.8626 0.495618 -0.868481 -0.0101464
15.7664 80.3709 -4.81376 0.459896 -0.88795 0.00630301
16.742 80.8555 -4.76239 0.431398 -0.902113 0.00939343
17.6823 81.28 -4.71494 0.386894 -0.922105 0.00593013
18.65 81.6379 -4.67023 0.298661 -0.954336 0.00668981
19.7925 81.9577 -4.62248 0.222712 -0.974826 0.0106585
20.8011 82.1415 -4.5869 0.140277 -0.989757 0.0265058
21.866 82.2668 -4.55919 0.0923479 -0.995709 -0.00600028
22.9912 82.3078 -4.53828 0.00163806 -0.999948 -0.0100581
24.2286 82.2712 -4.5263 -0.050119 -0.99868 -0.0112288
25.3587 82.1982 -4.52451 -0.0875391 -0.996066 -0.0137277
26.4874 82.0756 -4.53095 -0.128932 -0.991574 0.0125737
27.6079 81.897 -4.54592 -0.177684 -0.984052 0.00838692
28.6395 81.6874 -4.5644 -0.205202 -0.978701 -0.00600398
29.6368 81.4734 -4.5866 -0.231419 -0.972854 -0.000237133
30.6558 81.1982 -4.61722 -0.287798 -0.957688 0.00245021
31.6742 80.8739 -4.64782 -0.317789 -0.94814 -0.00637955
32.6483 80.5176 -4.68181 -0.362918 -0.931821 0.000410342
33.577 80.1469 -4.71957 -0.380248 -0.924843 -0.00876528
34.522 79.7454 -4.75874 -0.399071 -0.916908 -0.00475343
35.5551 79.279 -4.80025 -0.418174 -0.908367 9.22909e-05
36.4734 78.8304 -4.8415 -0.448899 -0.893582 0.000488384
37.3831 78.3592 -4.87836 -0.467769 -0.88385 -0.00133606
38.3858 77.8198 -4.91555 -0.481483 -0.876433 -0.00628936
39.3116 77.3066 -4.95134 -0.494324 -0.86924 -0.00810837
40.2774 76.7473 -4.98384 -0.507614 -0.861583 -0.00178489
41.1404 76.2257 -5.0113 -0.528592 -0.848865 -0.00435372
42.0259 75.6691 -5.03705 -0.536608 -0.84382 -0.00452121
42.4152 75.42 -5.04543 -0.54141 -0.840749 -0.003935
42.4131 75.4175 -4.03589 -0.544159 -0.838911 -0.010934
41.5661 75.9538 -4.0187 -0.531895 -0.846795 -0.00499594
40.6933 76.4925 -3.9992 -0.515046 -0.857149 -0.00490516
39.819 77.0087 -3.97574 -0.497618 -0.867365 -0.00733737
38.9492 77.5033 -3.9511 -0.488251 -0.872678 -0.00667414
38.0281 78.0123 -3.9232 -0.48208 -0.876126 -0.00139339
37.1001 78.5073 -3.89507 -0.459372 -0.888242 -0.00188386
36.1632 78.9848 -3.86234 -0.446625 -0.894719 -0.00198905
35.2412 79.4248 -3.83273 -0.423156 -0.906037 -0.00595092
34.2612 79.8583 -3.80185 -0.395921 -0.918283 -0.00135969
33.312 80.252 -3.7687 -0.369397 -0.929265 -0.00361017
32.3026 80.6455 -3.73873 -0.353995 -0.935243 -0.0028761
31.3308 80.9853 -3.71332 -0.308604 -0.95119 -0.000754435
30.3396 81.2931 -3.68902 -0.282781 -0.959157 0.00732901
29.3011 81.5495 -3.66876 -0.215634 -0.976451 0.00668266
28.3049 81.7548 -3.65109 -0.201527 -0.979483 -0.00011307
27.1755 81.9761 -3.63683 -0.183623 -0.98298 0.00573705
26.1015 82.1241 -3.62836 -0.108218 -0.994127 -0.00107468
25.0139 82.2209 -3.62542 -0.0690685 -0.99752 -0.0135095
23.9017 82.2786 -3.63085 -0.0370179 -0.999276 -0.00874466
22.8898 82.2984 -3.64131 0.00339453 -0.999994 0.000469092
21.8378 82.2663 -3.65524 0.048989 -0.998798 0.00158245
20.79 82.1536 -3.67878 0.139605 -0.989831 0.0272903
19.7533 81.9711 -3.70414 0.205477 -0.978323 0.0257608
18.7395 81.6826 -3.73606 0.312373 -0.949082 0.0408199
17.6486 81.2621 -3.77402 0.386893 -0.922124 0.00125654
16.6588 80.8237 -3.81186 0.415956 -0.909383 0.00178125
15.651 80.3123 -3.85244 0.471252 -0.88199 -0.00397689
14.7247 79.8034 -3.89228 0.500905 -0.865373 -0.0149485
13.8131 79.2533 -3.92509 0.529693 -0.848132 -0.00987231
12.9698 78.7158 -3.95155 0.551204 -0.834321 -0.00910932
12.9271 78.6872 -3.95259 0.556038 -0.831074 -0.0116908
12.8859 78.6433 -2.96085 0.551303 -0.834177 -0.0146514
13.7385 79.1958 -2.94173 0.532734 -0.846222 -0.0101109
14.6695 79.7652 -2.91932 0.502906 -0.864322 -0.00573404
15.5468 80.2567 -2.89026 0.479202 -0.87769 0.00511272
16.5715 80.7814 -2.86044 0.42246 -0.906369 0.00467587
17.5529 81.2135 -2.83263 0.403295 -0.915012 -0.0103039
18.5274 81.611 -2.80629 0.339881 -0.940404 0.0110021
19.5162 81.9162 -2.7838 0.236944 -0.971494 -0.00751075
20.5348 82.1201 -2.76575 0.153874 -0.987868 -0.020983
21.6218 82.2556 -2.74844 0.107426 -0.994212 0.00119986
22.7749 82.3059 -2.73621 -0.00274728 -0.999959 0.00865271
23.79 82.2837 -2.72614 -0.0450054 -0.998982 0.00300783
24.8774 82.2235 -2.72138 -0.0771943 -0.99701 -0.00348765
25.9443 82.1338 -2.72376 -0.0934372 -0.995589 -0.00847846
27.0031 82.0054 -2.73028 -0.147716 -0.988911 -0.0153499
27.9925 81.8201 -2.73897 -0.194937 -0.980765 0.0100006
29.2182 81.5616 -2.75107 -0.206569 -0.978414 -0.00601265
30.2452 81.3136 -2.76795 -0.256085 -0.966521 -0.0160405
31.2146 81.0197 -2.78495 -0.313731 -0.949511 -0.00102616
32.178 80.6858 -2.80465 -0.347254 -0.937742 -0.00737214
33.2798 80.2632 -2.82871 -0.368305 -0.929703 0.00209094
34.2501 79.8595 -2.85354 -0.393686 -0.919232 -0.00482351
35.2081 79.4365 -2.87704 -0.415024 -0.909807 -0.00257964
36.156 78.9858 -2.90011 -0.442577 -0.896729 -0.00177789
37.2632 78.419 -2.92823 -0.468056 -0.883696 -0.00196064
38.2848 77.8682 -2.95244 -0.482073 -0.87613 0.00141021
39.2631 77.3172 -2.97607 -0.498027 -0.867125 -0.00800301
40.2732 76.7333 -2.99727 -0.502485 -0.864558 -0.00692204
41.2035 76.1717 -3.01528 -0.522284 -0.852742 -0.00705167
42.18 75.5578 -3.02893 -0.540702 -0.841212 -0.00165153
42.4079 75.4113 -3.03149 -0.543212 -0.839591 -0.00290861
42.3064 75.475 -2.03091 -0.542466 -0.840072 0.00303494
41.3541 76.0761 -2.0209 -0.523521 -0.852012 0.000869282
40.4429 76.628 -2.00823 -0.50692 -0.86198 -0.00473414
39.4531 77.2027 -1.99307 -0.498693 -0.866777 -0.00172423
38.5656 77.7084 -1.98078 -0.491158 -0.87107 -0.000992849
37.6195 78.2252 -1.96497 -0.470944 -0.882148 -0.00518462
36.7033 78.7048 -1.94764 -0.457783 -0.88905 -0.00504475
35.7907 79.158 -1.93142 -0.43631 -0.899768 -0.00716649
34.7879 79.621 -1.915 -0.405847 -0.913935 0.00334154
33.7664 80.0601 -1.89778 -0.391748 -0.920071 -0.00196474
32.8037 80.4462 -1.88124 -0.353508 -0.935432 0.000321138
31.8166 80.8087 -1.86726 -0.329856 -0.944009 -0.00651062
30.8122 81.1465 -1.85328 -0.298428 -0.95442 -0.00493591
29.7672 81.4314 -1.84112 -0.233854 -0.972244 -0.00731435
28.7277 81.6698 -1.83363 -0.208584 -0.978004 0.000541109
27.7326 81.8748 -1.82729 -0.184395 -0.982799 -0.0102014
26.7296 82.035 -1.82052 -0.142558 -0.98976 -0.00719106
25.6759 82.1546 -1.81836 -0.0935093 -0.995612 -0.00345246
24.5958 82.2429 -1.81858 -0.0684104 -0.997642 0.0055638
23.4633 82.3045 -1.82436 -0.0461005 -0.998909 0.00748415
22.3867 82.3103 -1.82688 0.0354928 -0.999289 -0.0127428
21.2217 82.204 -1.83803 0.113941 -0.993422 0.0114379
20.1409 82.0435 -1.84926 0.200474 -0.97955 0.0171081
19.0454 81.7682 -1.86405 0.267175 -0.963584 -0.0110569
18.0291 81.4001 -1.87927 0.390015 -0.920577 -0.0206644
16.9956 80.9535 -1.89822 0.395875 -0.918182 -0.014995
16.0744 80.5382 -1.91514 0.436366 -0.89961 0.0169213
15.0671 79.9983 -1.93544 0.494552 -0.869148 0.00100519
14.1884 79.4679 -1.94987 0.530934 -0.847406 -0.00355896
13.3141 78.9103 -1.96904 0.552938 -0.833116 -0.0133266
12.9851 78.6912 -1.97344 0.570426 -0.821245 -0.0130904
12.9361 78.6457 -0.988703 0.552624 -0.833417 0.00470878
13.8278 79.2228 -0.976761 0.537647 -0.843005 -0.0166612
14.7923 79.8361 -0.967808 0.530394 -0.84775 -0.00107712
15.7428 80.3817 -0.95793 0.477196 -0.878752 0.00883871
16.7518 80.8493 -0.949116 0.388965 -0.921005 0.0213563
17.7311 81.2574 -0.94128 0.384465 -0.923068 0.0114595
18.6876 81.6355 -0.934212 0.327074 -0.944932 0.011214
19.7065 81.9478 -0.929002 0.248763 -0.968284 0.0233081
20.8852 82.1836 -0.924112 0.149549 -0.987888 0.041371
21.9292 82.2984 -0.919148 0.0678168 -0.997175 0.0322899
23.014 82.3127 -0.91323 -0.0200945 -0.999744 -0.0103928
24.181 82.27 -0.91367 -0.0490422 -0.998734 -0.0111802
25.2047 82.1926 -0.912125 -0.0921502 -0.995734 -0.00463064
26.354 82.0736 -0.913634 -0.120064 -0.992759 -0.00367663
27.4458 81.9127 -0.914627 -0.159311 -0.987126 -0.0141988
28.5549 81.7089 -0.916783 -0.210751 -0.977528 -0.00474797
29.5681 81.4741 -0.921292 -0.231341 -0.972845 -0.00737902
30.5744 81.2096 -0.926976 -0.269003 -0.963029 -0.0145378
31.5334 80.9034 -0.934323 -0.331361 -0.943473 -0.00765028
32.5089 80.5526 -0.942336 -0.349586 -0.936904 0.000125878
33.4745 80.1808 -0.95008 -0.375057 -0.927002 0.000726763
34.5075 79.7419 -0.960725 -0.398735 -0.917064 0.00208562
35.4652 79.306 -0.969375 -0.429957 -0.902802 -0.00924664
36.3734 78.8632 -0.979087 -0.445808 -0.895074 -0.00989565
37.3719 78.3501 -0.988682 -0.469004 -0.883186 -0.0041972
38.3537 77.8173 -0.998287 -0.484342 -0.874784 -0.0128394
39.296 77.2865 -1.0073 -0.495104 -0.868793 -0.00846738
40.2527 76.7327 -1.01651 -0.508109 -0.86128 -0.0046855
41.179 76.1787 -1.02402 -0.519053 -0.854712 -0.00720552
42.138 75.5828 -1.03141 -0.539399 -0.84205 -0.000213758
42.4467 75.3833 -1.03415 -0.543329 -0.839519 0.0013968
42.4013 75.4064 -0.0377973 -0.545255 -0.838241 -0.00703966
41.4898 75.9843 -0.0337794 -0.527952 -0.849251 -0.00626798
40.554 76.5482 -0.0286246 -0.511651 -0.859176 -0.00552298
39.6894 77.0542 -0.026903 -0.496966 -0.86772 -0.00930906
38.7548 77.5831 -0.0226935 -0.487109 -0.873297 -0.00885027
37.7873 78.1148 -0.01889 -0.472122 -0.881468 -0.010662
36.8477 78.6125 -0.0160464 -0.46444 -0.885566 -0.0082941
35.9165 79.0813 -0.0139476 -0.441799 -0.897101 -0.00488487
35.0097 79.5194 -0.0119333 -0.411608 -0.911352 -0.00404129
34.0709 79.9318 -0.0103575 -0.387053 -0.922055 0.00207455
33.1038 80.326 -0.00824771 -0.359648 -0.933051 -0.00832553
32.158 80.6768 -0.00581594 -0.338142 -0.941095 -0.000509086
31.1982 81.0139 -0.00342946 -0.317055 -0.94832 -0.0128701
30.1322 81.3306 -0.00204725 -0.255735 -0.966742 -0.00317163
29.0835 81.5896 -0.0022087 -0.221083 -0.975249 0.0035155
27.8933 81.8353 -0.000845425 -0.187463 -0.982183 -0.0132388
26.7572 82.0123 -0.00176922 -0.137737 -0.990456 -0.00507653
25.7543 82.1353 -0.000740995 -0.10838 -0.994063 -0.00961306
24.6984 82.2333 -0.000612639 -0.0779862 -0.996943 0.00476994
23.6529 82.2971 -0.00270164 -0.0306608 -0.999464 0.0115054
22.6232 82.3161 -0.00290466 0.00791476 -0.999938 -0.00780097
21.5495 82.2732 0.000156271 0.0999755 -0.994883 -0.0145522
20.5117 82.1326 0.00205242 0.188674 -0.981551 -0.030982
19.5195 81.8925 0.0022636 0.276922 -0.960885 0.00380656
18.5625 81.5991 0.00289873 0.325458 -0.945282 0.0227819
17.5569 81.2075 0.00303492 0.37678 -0.925623 0.035494
16.6346 80.8132 0.00358171 0.413765 -0.910264 0.0147501
15.6615 80.3228 0.00473066 0.476719 -0.878963 -0.0127599
14.7043 79.7687 0.00430429 0.5185 -0.854963 -0.0140255
13.807 79.2039 0.00263272 0.538271 -0.842772 -0.000472533
13.0666 78.7273 -6.19565e-05 0.545584 -0.838015 -0.0082881
12.9555 78.6353 0.9805 0.557593 -0.829873 -0.0200165
13.9433 79.2826 0.97788 0.529095 -0.84856 -0.00226409
14.7998 79.81 0.973608 0.520384 -0.853929 0.00244686
15.7177 80.3484 0.963811 0.493519 -0.869726 0.00385166
16.7448 80.8804 0.956177 0.442248 -0.896892 0.00125906
17.7815 81.32 0.947198 0.351407 -0.936219 0.00268602
18.7843 81.6662 0.940075 0.295171 -0.955439 -0.00328938
19.9004 81.989 0.933316 0.253714 -0.967184 0.0135871
20.8967 82.1802 0.929106 0.141931 -0.989846 0.0077333
21.9789 82.2941 0.91941 0.0725064 -0.997364 -0.00286583
23.1318 82.3231 0.915526 -0.0372783 -0.999162 0.0168961
24.2751 82.2623 0.908433 -0.0700426 -0.997377 -0.0182518
25.414 82.1673 0.907611 -0.0995676 -0.995031 0.000568396
26.5142 82.0403 0.909798 -0.127015 -0.991867 -0.00820586
27.5529 81.8883 0.913003 -0.167074 -0.985917 -0.00740031
28.5764 81.6947 0.914898 -0.199031 -0.979992 -0.00180105
29.692 81.4409 0.917566 -0.254676 -0.967011 0.00553438
30.6972 81.1558 0.920712 -0.288889 -0.957259 -0.014073
31.7576 80.8145 0.924924 -0.316325 -0.948649 -0.00173849
32.7208 80.4679 0.929164 -0.349473 -0.936946 -0.00139579
33.7248 80.0779 0.934072 -0.373607 -0.927587 0.0010866
34.7531 79.635 0.939394 -0.402188 -0.915499 -0.0103138
35.7137 79.1723 0.944202 -0.439163 -0.898391 -0.00537486
36.6918 78.6842 0.950348 -0.453698 -0.89115 -0.00321708
37.7103 78.147 0.954115 -0.474414 -0.880292 -0.00415496
38.7129 77.598 0.956291 -0.487388 -0.873168 -0.0054703
39.5994 77.0977 0.958257 -0.496416 -0.868043 -0.00852264
40.5601 76.5367 0.959618 -0.511363 -0.859347 -0.00548445
41.4725 75.9832 0.960037 -0.523231 -0.852127 -0.010435
42.3605 75.4248 0.957841 -0.543411 -0.839433 -0.00754847
42.4044 75.3866 1.95543 -0.537835 -0.843022 -0.00691095
41.5311 75.9367 1.95413 -0.526581 -0.850079 -0.00880845
40.6384 76.4835 1.95055 -0.517473 -0.855668 -0.00729242
39.6485 77.0636 1.94428 -0.500158 -0.86592 -0.0050289
38.6989 77.601 1.93784 -0.486242 -0.873817 -0.00358032
37.8129 78.0883 1.92928 -0.478389 -0.878129 -0.00581248
36.9205 78.5645 1.91793 -0.467386 -0.884012 -0.00849686
35.8668 79.0939 1.90535 -0.44414 -0.895946 0.00443854
34.9298 79.5438 1.89411 -0.415677 -0.909512 -0.000663728
33.9151 79.9921 1.87932 -0.385942 -0.922393 -0.0154723
32.8514 80.4158 1.8673 -0.355859 -0.934531 -0.00394606
31.7688 80.8066 1.85469 -0.328476 -0.94449 -0.00647356
30.6215 81.175 1.84369 -0.292951 -0.956127 0.000752393
29.6312 81.4577 1.83366 -0.246974 -0.969011 -0.00462849
28.6551 81.6778 1.82721 -0.202556 -0.979248 0.00669913
27.6478 81.87 1.82236 -0.173453 -0.984834 -0.00403317
26.5829 82.0266 1.81919 -0.130987 -0.991357 -0.00736498
25.5009 82.1558 1.8164 -0.11306 -0.993584 -0.00295015
24.486 82.2397 1.81864 -0.0668061 -0.997754 -0.00489578
23.4317 82.3018 1.82389 -0.0421985 -0.998997 -0.0149461
22.4121 82.3134 1.83085 0.0514698 -0.998657 -0.00589648
21.3198 82.2294 1.84085 0.101723 -0.994774 0.00880221
20.2442 82.0745 1.8526 0.199544 -0.97975 -0.016516
19.2494 81.8262 1.86631 0.293809 -0.955785 0.0123285
18.2481 81.4945 1.88433 0.335171 -0.942089 0.0113685
17.296 81.1291 1.90155 0.390009 -0.920775 -0.00816164
16.2604 80.6382 1.91992 0.449954 -0.89305 0.00180745
15.2152 80.0694 1.93967 0.500306 -0.865849 0.000298013
14.2675 79.4924 1.95212 0.532464 -0.846298 0.0161983
13.4051 78.9364 1.96823 0.554811 -0.831924 0.00930512
12.9468 78.6239 1.97334 0.57421 -0.818366 0.0236507
13.0944 78.7488 2.96144 0.547268 -0.836917 0.00822609
14.0017 79.3388 2.93977 0.543667 -0.839223 0.0114473
14.9932 79.9426 2.9166 0.494188 -0.869351 -0.00255533
15.8967 80.4392 2.89116 0.464425 -0.885546 -0.0108568
16.8533 80.9153 2.86317 0.420254 -0.907388 -0.00588061
17.9358 81.3775 2.83392 0.371481 -0.928337 -0.0138742
18.8737 81.7268 2.80616 0.302854 -0.952997 0.0087359
19.8439 81.9909 2.78134 0.195039 -0.980795 0.000553823
20.8546 82.1715 2.76132 0.16659 -0.985923 -0.0142844
21.9511 82.282 2.74381 0.0531213 -0.998463 -0.0158196
22.9872 82.3127 2.73193 0.0299183 -0.999205 -0.0263449
24.1309 82.2675 2.72677 -0.057039 -0.998326 0.00962033
25.2053 82.1826 2.72412 -0.100353 -0.994914 0.00865853
26.3786 82.0503 2.72688 -0.128641 -0.991637 -0.0103196
27.4357 81.898 2.731 -0.16331 -0.986575 -5.97001e-05
28.4302 81.7215 2.74015 -0.185765 -0.982588 -0.00347127
29.5396 81.4773 2.75313 -0.232546 -0.972555 -0.00775785
30.5588 81.1963 2.76566 -0.285169 -0.958406 -0.0116961
31.5368 80.8834 2.78126 -0.321502 -0.946868 -0.00877689
32.5423 80.5262 2.79979 -0.35 -0.93675 -0.000570903
33.4803 80.1623 2.81608 -0.371428 -0.928428 -0.00789563
34.4721 79.743 2.83616 -0.400194 -0.916415 -0.00526083
35.4029 79.3176 2.85505 -0.418914 -0.90802 -0.00316729
36.3423 78.8569 2.87469 -0.452366 -0.891831 0.00193305
37.2357 78.3908 2.89155 -0.471708 -0.881722 -0.00763596
38.155 77.8959 2.90992 -0.476991 -0.878888 -0.00592682
39.1874 77.3218 2.92831 -0.492835 -0.870103 -0.00592758
40.0828 76.8049 2.93906 -0.505458 -0.862807 -0.00873922
41.0101 76.2492 2.9487 -0.521501 -0.853241 -0.00405204
42.0247 75.6184 2.95602 -0.531635 -0.846944 -0.00709182
42.4155 75.3673 2.95787 -0.542054 -0.840276 -0.0106223
42.3499 75.3999 3.96474 -0.542862 -0.83982 -0.00152122
41.3768 76.0186 3.95143 -0.525172 -0.850995 -0.00168257
40.3795 76.6211 3.93701 -0.511654 -0.859164 -0.00687515
39.4477 77.1657 3.92065 -0.498405 -0.866932 -0.00463779
38.5735 77.6593 3.89814 -0.488256 -0.872694 -0.00319089
37.5465 78.2191 3.86872 -0.47314 -0.880987 0.000380374
36.5926 78.7229 3.84627 -0.458853 -0.888442 -0.0111899
35.6504 79.1956 3.81873 -0.431577 -0.902018 -0.0102409
34.6074 79.677 3.78858 -0.408176 -0.912875 -0.00725528
33.676 80.0787 3.76459 -0.380948 -0.924535 -0.0107051
32.7289 80.4519 3.73932 -0.348962 -0.93711 -0.00712966
31.7333 80.812 3.71195 -0.326669 -0.945132 -0.00363951
30.6327 81.1611 3.68995 -0.283691 -0.958756 -0.017527
29.6265 81.4443 3.66866 -0.260435 -0.965319 -0.018253
28.4959 81.704 3.64901 -0.190901 -0.981577 -0.00799982
27.4976 81.886 3.63652 -0.163281 -0.986578 -0.0018706
26.4429 82.0411 3.62861 -0.123481 -0.992335 0.00484634
25.4459 82.158 3.62562 -0.107903 -0.994158 0.00266298
24.3208 82.2589 3.62887 -0.0756209 -0.997036 0.0141586
23.3047 82.3046 3.63605 0.00225601 -0.999711 0.0239279
22.1307 82.288 3.65141 0.0477115 -0.998811 0.0100047
21.0842 82.1939 3.67131 0.143954 -0.98947 -0.0150244
19.9677 82.0126 3.70236 0.208885 -0.977642 0.0241288
18.8934 81.7258 3.74038 0.305818 -0.952045 -0.00920303
17.876 81.3467 3.77748 0.398241 -0.91727 0.004475
16.9592 80.9429 3.81529 0.411784 -0.911247 -0.00797566
15.9668 80.4692 3.85534 0.462404 -0.886654 0.00517321
15.0248 79.9633 3.89011 0.489005 -0.872281 -0.000401318
14.0473 79.3765 3.92584 0.531218 -0.847233 0.00184717
13.1672 78.8008 3.95251 0.556162 -0.831054 0.00570015
12.9986 78.688 3.95758 0.556168 -0.831051 0.00571237
12.9335 78.6485 4.96689 0.571518 -0.820537 0.00930499
13.7661 79.2069 4.93296 0.542579 -0.839961 0.00862401
14.6824 79.7661 4.88884 0.494158 -0.869372 0.000952477
15.5877 80.269 4.84236 0.476448 -0.879186 -0.00545341
16.5183 80.7424 4.79552 0.435069 -0.900354 0.00876303
17.4648 81.179 4.74372 0.410487 -0.911625 0.0210056
18.4163 81.5684 4.69312 0.348047 -0.937476 -0.00123139
19.4653 81.9002 4.64471 0.277071 -0.960808 0.00890939
20.6572 82.1323 4.59753 0.131542 -0.991253 0.0107147
21.7961 82.26 4.56411 0.102963 -0.994685 0.000213013
22.9888 82.3214 4.54131 0.013155 -0.999651 0.0229075
24.1353 82.2787 4.52708 -0.0692311 -0.997593 -0.00377705
25.245 82.184 4.52508 -0.103194 -0.994627 0.00825542
26.4798 82.0405 4.52851 -0.134427 -0.990882 0.0090591
27.5905 81.8688 4.54123 -0.168006 -0.985758 -0.00736315
28.7334 81.6465 4.56203 -0.210101 -0.977672 -0.00376775
29.7072 81.4181 4.58319 -0.253571 -0.96725 -0.0114056
30.6964 81.1354 4.60926 -0.281701 -0.959487 -0.00544894
31.8195 80.7772 4.64397 -0.330414 -0.943817 -0.00595376
32.8404 80.4042 4.67908 -0.35592 -0.934516 -0.000394747
33.8782 79.9848 4.71344 -0.396236 -0.918083 -0.01102
34.8628 79.5524 4.74896 -0.402752 -0.915237 -0.0115138
35.7758 79.1246 4.78552 -0.440366 -0.8978 -0.00576452
36.7983 78.6069 4.82106 -0.458382 -0.888716 -0.00835435
37.8547 78.0515 4.85692 -0.475892 -0.879503 0.000183882
38.8037 77.5273 4.8896 -0.487146 -0.873309 -0.00452982
39.6839 77.0256 4.91526 -0.500243 -0.865875 -0.00412473
40.5758 76.498 4.93993 -0.514304 -0.8576 -0.00361447
41.4885 75.9422 4.95678 -0.52583 -0.850575 -0.00504485
42.2883 75.4387 4.97133 -0.534371 -0.84524 -0.00420927
32.826 80.4029 5.61427 -0.355599 -0.934621 -0.00578339
31.7946 80.7755 5.56981 -0.32397 -0.946057 -0.00443777
30.8285 81.0918 5.53246 -0.297883 -0.954601 -0.00194606
29.8386 81.3789 5.49878 -0.256471 -0.966524 -0.00739086
28.7517 81.6312 5.46788 -0.208307 -0.978015 -0.00972435
27.6749 81.8502 5.44444 -0.193091 -0.981178 -0.00241885
26.5281 82.0359 5.42689 -0.137183 -0.990535 -0.0046986
25.4897 82.1605 5.42007 -0.105333 -0.994436 -0.00141633
24.4479 82.2559 5.41971 -0.0604482 -0.99815 -0.00648841
23.3802 82.3083 5.42901 -0.0411152 -0.999089 -0.0114002
22.3538 82.3128 5.45078 0.036252 -0.999319 0.00694641
21.2622 82.2126 5.4807 0.106985 -0.994198 0.0111246
20.1023 82.0635 5.53398 0.180335 -0.983076 0.0322754
18.9946 81.7775 5.58955 0.290418 -0.956781 0.0150558
18.365 81.5526 5.62819 0.353721 -0.935184 -0.0176747
18.4928 81.5823 -5.61114 0.326876 -0.945067 -0.000707032
19.5181 81.8894 -5.55212 0.274356 -0.961579 -0.00970414
20.5794 82.0946 -5.49934 0.157525 -0.987372 0.0167806
21.6834 82.2398 -5.46267 0.110677 -0.993783 0.0120503
22.8161 82.3196 -5.43782 0.0129242 -0.999915 0.00181838
23.8327 82.3008 -5.4245 -0.0342518 -0.999301 -0.0150037
25.0211 82.2335 -5.41987 -0.0738231 -0.997181 -0.0134005
26.1246 82.1131 -5.42569 -0.127562 -0.991822 -0.0041813
27.2758 81.9487 -5.44077 -0.153829 -0.988085 0.00500639
28.2669 81.7742 -5.45845 -0.190578 -0.981561 -0.014757
29.3035 81.5558 -5.48665 -0.221218 -0.975184 -0.00891822
30.3057 81.3056 -5.51996 -0.280638 -0.959802 0.0047173
31.3378 80.9867 -5.55586 -0.306282 -0.95194 -0.00117639
32.343 80.6333 -5.60341 -0.34557 -0.938393 0.000335838
32.9601 80.4008 -5.62983 -0.364105 -0.931358 4.52169e-05
33.1539 80.3233 -5.63869 -0.371295 -0.928511 -0.00274199
