29.705 82.6858 5.62947 -0.228966 -0.973373 -0.0109339
30.4965 82.4701 6.07398 -0.267606 -0.96344 -0.00761155
31.5564 82.1525 6.09713 -0.298335 -0.954454 -0.00371491
32.5371 81.8195 6.11481 -0.342653 -0.939407 -0.00396725
33.6315 81.3892 6.05743 -0.384055 -0.923179 -0.0155762
34.6014 80.9788 6.08808 -0.399293 -0.916674 -0.0162215
35.5404 80.5469 6.09238 -0.426058 -0.904665 -0.00743363
36.5654 80.041 6.07526 -0.453544 -0.891184 -0.00938386
37.4785 79.5668 6.11995 -0.469744 -0.882689 -0.0121507
38.4712 79.0249 6.0908 -0.488177 -0.872624 -0.014025
39.3775 78.5139 6.1013 -0.495252 -0.868744 -0.00300475
40.3252 77.9688 6.11032 -0.505713 -0.862694 -0.00303582
41.3488 77.3575 6.10924 -0.521572 -0.853207 -0.000500833
42.3161 76.7607 6.06279 -0.527448 -0.849582 -0.00297355
43.1668 76.2214 6.10406 -0.543865 -0.839112 -0.0073548
43.887 75.745 5.71057 -0.558022 -0.829769 -0.00953328
43.9072 75.7425 4.66729 -0.554331 -0.832253 -0.008465
43.8947 75.7585 3.62863 -0.555118 -0.831767 -0.00254854
43.9039 75.7537 2.60782 -0.5583 -0.829637 -0.00199343
43.9356 75.7387 1.46878 -0.557715 -0.83001 -0.0059656
43.9359 75.7462 0.408911 -0.556232 -0.831004 -0.00621857
43.9396 75.7521 -0.621915 -0.554812 -0.831951 -0.00649991
43.9269 75.7719 -1.76954 -0.552921 -0.833184 -0.00876107
43.9646 75.7519 -2.83974 -0.554469 -0.832203 0.00141367
43.9607 75.757 -3.91244 -0.5518 -0.833949 -0.006591
43.9799 75.7575 -5.06348 -0.55505 -0.831732 -0.0118788
43.8321 75.8642 -6.05283 -0.552999 -0.833146 -0.00769967
42.9671 76.428 -6.08315 -0.538579 -0.84254 -0.00749382
42.115 76.9675 -6.08907 -0.532269 -0.846522 -0.00956487
41.2512 77.5038 -6.09283 -0.522746 -0.852465 -0.00529095
40.3636 78.036 -6.0901 -0.510237 -0.860027 -0.00339906
39.4018 78.5951 -6.12529 -0.496239 -0.868145 -0.00843804
38.4308 79.1285 -6.11532 -0.474987 -0.879985 -0.00307813
37.5372 79.6049 -6.09395 -0.463281 -0.886209 -0.00199664
36.5753 80.1027 -6.11287 -0.449409 -0.893326 0.000909665
35.6495 80.5578 -6.12516 -0.428348 -0.903492 -0.0128685
34.6886 80.9939 -6.10228 -0.402057 -0.915604 -0.00280767
33.6937 81.4194 -6.11169 -0.385578 -0.922668 -0.00195827
32.7357 81.8077 -6.10265 -0.34351 -0.939132 0.00490777
31.6095 82.2028 -6.09313 -0.309347 -0.950944 2.17054e-06
30.5443 82.5368 -6.09115 -0.284077 -0.958796 0.0031518
29.8714 82.7145 -5.58409 -0.21111 -0.97745 -0.0048739
29.8491 82.7169 -4.47057 -0.219607 -0.975501 -0.00803573
29.8593 82.6951 -3.45975 -0.252973 -0.967394 -0.010255
29.8736 82.6904 -2.42688 -0.246944 -0.968898 0.0112427
29.9007 82.6857 -1.35614 -0.227322 -0.973791 -0.00753051
29.9061 82.6687 -0.19057 -0.251415 -0.96785 -0.00587895
29.8321 82.6837 0.966943 -0.237312 -0.971369 -0.0112221
29.735 82.7023 2.17692 -0.249117 -0.968467 -0.00142604
29.7268 82.7017 3.18162 -0.254273 -0.967121 -0.00443889
29.7233 82.6937 4.23075 -0.247566 -0.96886 -0.00456148
29.7113 82.6887 5.24031 -0.233384 -0.972263 -0.0142949
29.7052 82.6884 5.39568 -0.228966 -0.973373 -0.0109339
28.7893 82.8969 5.37188 -0.203966 -0.978806 -0.0183416
28.8033 82.9105 4.29038 -0.189443 -0.981852 -0.00887172
28.8103 82.9067 3.28425 -0.199508 -0.979864 0.00795964
28.8244 82.9081 2.17981 -0.202672 -0.979219 -0.00722817
28.9057 82.8989 1.03347 -0.198721 -0.98 -0.0105121
28.9339 82.8995 0.0245166 -0.213748 -0.97682 -0.0115732
28.9746 82.8971 -0.995722 -0.215228 -0.976542 -0.00614334
28.9647 82.9042 -2.04656 -0.215115 -0.976559 -0.0075635
28.9088 82.9162 -3.0509 -0.214714 -0.976656 -0.00175843
28.9184 82.9126 -4.24127 -0.204433 -0.978878 -0.00240059
28.9342 82.9096 -5.29604 -0.194378 -0.980927 6.36864e-05
28.9169 82.92 -6.31381 -0.190942 -0.981516 -0.012899
29.3761 82.8306 -7.05281 -0.223217 -0.974715 -0.000773326
30.4194 82.5674 -7.05779 -0.259766 -0.965658 0.0013633
31.4419 82.2569 -7.0507 -0.307425 -0.951537 0.00467042
32.4545 81.913 -7.04486 -0.339849 -0.940452 0.00721872
33.5573 81.4809 -7.05734 -0.385731 -0.922598 -0.00497208
34.5091 81.0745 -7.04564 -0.398817 -0.917028 -0.00205132
35.5144 80.6218 -7.04773 -0.42127 -0.906934 -0.0015589
36.4328 80.1767 -7.0664 -0.451002 -0.892482 0.00324369
37.324 79.7164 -7.05338 -0.462562 -0.886573 0.00505731
38.3578 79.1686 -7.05944 -0.473455 -0.880818 0.000372105
39.2775 78.6685 -7.07256 -0.485004 -0.87447 -0.00860979
40.2017 78.1382 -7.04221 -0.504124 -0.863627 -0.00264358
41.1113 77.597 -7.05438 -0.516744 -0.85611 -0.00683403
42.0572 77.0135 -7.05586 -0.530743 -0.847503 -0.00710053
42.9954 76.4174 -7.02903 -0.538948 -0.842329 -0.00416153
43.8361 75.8677 -7.04705 -0.553488 -0.832841 -0.00527802
44.7085 75.2811 -6.90204 -0.563289 -0.826256 -0.0025987
44.7738 75.2296 -5.78537 -0.561893 -0.827182 -0.00677178
44.7613 75.2302 -4.78054 -0.560155 -0.828363 -0.00641856
44.7519 75.2285 -3.68341 -0.558141 -0.829726 -0.00576987
44.7476 75.2245 -2.46131 -0.562272 -0.826935 -0.00493229
44.7265 75.2296 -1.45994 -0.561374 -0.827528 -0.00754852
44.7299 75.2182 -0.32895 -0.560618 -0.828059 -0.00497956
44.7143 75.2177 0.827152 -0.560532 -0.828092 -0.00817041
44.7223 75.2034 1.99122 -0.561554 -0.827432 -0.00379751
44.6853 75.2253 3.15301 -0.561604 -0.827403 -0.00174882
44.7236 75.1947 4.18522 -0.565761 -0.824543 -0.00648959
44.6843 75.2097 5.20671 -0.564429 -0.825421 -0.00997539
44.6925 75.1904 6.44288 -0.563617 -0.825989 -0.00884207
44.1005 75.5869 7.05783 -0.561351 -0.827528 -0.00901714
43.2288 76.1757 7.06478 -0.556533 -0.830819 -0.000982724
42.2781 76.7805 7.0458 -0.530236 -0.847843 -0.0034596
41.4122 77.3149 7.05735 -0.519582 -0.85441 -0.00274519
40.4445 77.8923 7.05409 -0.504632 -0.863303 -0.0073346
39.5737 78.396 7.05117 -0.491743 -0.87073 -0.00420524
38.6835 78.8921 7.04714 -0.48262 -0.875682 -0.0157049
37.6926 79.4336 7.07208 -0.479354 -0.877474 -0.0160826
36.7634 79.9316 7.04044 -0.468576 -0.883374 -0.00801856
35.7987 80.4077 7.04976 -0.438058 -0.89884 -0.0137703
34.8871 80.8379 7.06557 -0.414769 -0.90982 -0.00896052
33.8626 81.2796 7.02568 -0.385935 -0.922454 -0.0114872
32.8808 81.6793 7.05727 -0.352534 -0.935641 -0.00375839
31.9216 82.0189 7.06665 -0.326404 -0.944842 -0.0271053
30.9627 82.3269 7.04584 -0.299733 -0.953994 -0.00745262
29.9034 82.616 7.05125 -0.251163 -0.967866 -0.0111458
28.9266 82.8519 6.9819 -0.216498 -0.976282 -0.00109263
28.7824 82.8887 5.9411 -0.205938 -0.978494 -0.0117932
28.7849 82.8942 5.56861 -0.203977 -0.978804 -0.0183542
30.2483 82.5455 5.43791 -0.265862 -0.963994 -0.00582517
31.3986 82.2047 5.45957 -0.296543 -0.954963 -0.0103902
32.4036 81.8772 5.48625 -0.334539 -0.942378 0.00288169
33.4078 81.4888 5.51766 -0.378787 -0.925465 -0.00591693
34.3888 81.0742 5.55732 -0.399487 -0.916717 -0.00642118
35.362 80.6349 5.59555 -0.420678 -0.907124 -0.0124746
35.6541 80.4966 5.60777 -0.428011 -0.90376 -0.00503539
30.3024 82.5349 4.53881 -0.269657 -0.962951 -0.00328364
31.2769 82.2544 4.55114 -0.303156 -0.952824 -0.0148966
32.4301 81.871 4.57628 -0.339637 -0.940521 -0.00813157
33.5147 81.4542 4.60209 -0.373951 -0.927389 -0.0105015
34.5931 80.9919 4.63724 -0.404563 -0.914497 -0.00499292
35.5971 80.5372 4.67009 -0.429976 -0.902829 -0.00445148
36.4924 80.0907 4.69717 -0.458126 -0.888838 -0.00933839
37.4072 79.6157 4.72844 -0.465937 -0.88478 -0.00826748
38.3507 79.1075 4.75553 -0.483262 -0.875443 -0.00758852
39.2504 78.5946 4.78525 -0.498904 -0.866617 -0.00833035
40.154 78.0746 4.80724 -0.501443 -0.865164 -0.00681214
41.1457 77.4865 4.83206 -0.5208 -0.853661 -0.00550796
42.0671 76.9216 4.85311 -0.52465 -0.851295 -0.00619369
42.9253 76.385 4.86913 -0.5424 -0.840112 -0.00383965
43.4021 76.0749 4.87377 -0.548322 -0.836259 -0.00371606
43.4845 76.0303 3.88374 -0.546695 -0.837309 -0.00624576
42.6236 76.5845 3.87833 -0.531154 -0.847242 -0.00751604
41.7671 77.115 3.86592 -0.524655 -0.851295 -0.00587573
40.8665 77.6638 3.85072 -0.514373 -0.857543 -0.0063188
39.9054 78.2263 3.83033 -0.501051 -0.865375 -0.00859176
38.8865 78.8126 3.81123 -0.494282 -0.86927 -0.00737202
37.8177 79.4031 3.78545 -0.475965 -0.879446 -0.00557118
36.9042 79.8879 3.76432 -0.464211 -0.885717 -0.00373959
35.9111 80.3923 3.73902 -0.44583 -0.895073 -0.00891006
34.9845 80.8263 3.71739 -0.414312 -0.910105 -0.00739846
33.9175 81.2922 3.68988 -0.389681 -0.920918 -0.00761081
32.9514 81.6851 3.67054 -0.350604 -0.936487 -0.00834063
31.9888 82.0382 3.65441 -0.328135 -0.94463 -0.00134558
31.0272 82.3428 3.64141 -0.274647 -0.961477 -0.0114682
30.3269 82.5372 3.63545 -0.265717 -0.963957 -0.013482
30.2607 82.5618 2.72718 -0.25878 -0.965908 -0.0073275
31.3373 82.2614 2.73456 -0.302455 -0.952879 -0.0232786
32.3404 81.9137 2.74468 -0.340014 -0.940406 0.00515447
33.3867 81.5162 2.75794 -0.370978 -0.928642 -0.000160153
34.3404 81.1159 2.77158 -0.397846 -0.917437 -0.00535751
35.2705 80.704 2.788 -0.413325 -0.910583 -0.00146292
36.2678 80.2219 2.80697 -0.449088 -0.893485 -0.00203499
37.1891 79.7457 2.82094 -0.466169 -0.88468 -0.00515474
38.1454 79.2302 2.8375 -0.479522 -0.877514 -0.00521736
39.1209 78.6858 2.85242 -0.493851 -0.869538 -0.00386156
40.1248 78.1079 2.86635 -0.503184 -0.864148 -0.00728776
41.0543 77.5577 2.87867 -0.519758 -0.854305 -0.00387658
42.0231 76.9625 2.88955 -0.525932 -0.850519 -0.00358129
42.9983 76.3508 2.89605 -0.537637 -0.843172 -0.00260434
43.4519 76.0563 2.8973 -0.556917 -0.830561 -0.00337937
43.5064 76.0236 1.91479 -0.552573 -0.833443 -0.00602909
42.6603 76.5703 1.91249 -0.5319 -0.846792 -0.00505549
41.8078 77.104 1.91027 -0.52977 -0.848091 -0.00924182
40.9222 77.6455 1.90671 -0.515427 -0.856919 -0.00497848
40.0085 78.1844 1.89734 -0.501406 -0.865197 -0.00510462
39.05 78.732 1.88953 -0.489832 -0.871802 -0.00513838
38.1598 79.2279 1.8815 -0.481327 -0.876519 -0.00616736
37.2517 79.7184 1.87275 -0.47133 -0.881952 -0.00304401
36.3583 80.1761 1.86466 -0.450168 -0.892944 -0.000459799
35.4563 80.6232 1.85501 -0.427274 -0.904114 -0.00371646
34.4402 81.0758 1.84528 -0.397702 -0.917514 -0.000816975
33.4534 81.4926 1.83585 -0.384767 -0.923013 -0.000691049
32.377 81.9046 1.82677 -0.341754 -0.939782 -0.00373366
31.3982 82.2392 1.8211 -0.292703 -0.956092 -0.0146039
30.4352 82.5202 1.82063 -0.260765 -0.965389 -0.00512785
30.2658 82.5659 1.82117 -0.260924 -0.965347 -0.00484125
30.4599 82.5151 0.907256 -0.265666 -0.964064 -0.0010827
31.5348 82.1981 0.909329 -0.308227 -0.951299 0.00507676
32.592 81.8317 0.910064 -0.343273 -0.939231 0.00284246
33.6353 81.4199 0.91263 -0.384366 -0.923155 -0.00692224
34.6115 81.0043 0.916269 -0.400884 -0.916039 -0.0127863
35.5255 80.5908 0.919017 -0.435741 -0.900021 -0.00964288
36.4605 80.1266 0.921985 -0.44826 -0.893893 -0.0042337
37.4604 79.6094 0.924882 -0.47174 -0.881669 -0.0109877
38.416 79.092 0.92809 -0.480275 -0.877098 -0.00595045
39.3711 78.5581 0.931017 -0.491291 -0.870963 -0.00753945
40.2922 78.026 0.932639 -0.506206 -0.86238 -0.00743206
41.2492 77.455 0.933758 -0.518624 -0.854984 -0.00564206
42.1907 76.8724 0.934691 -0.531817 -0.846842 -0.00541955
43.0752 76.3101 0.933423 -0.541745 -0.840516 -0.00677291
43.5023 76.0331 0.933177 -0.548683 -0.836021 -0.00390954
43.5138 76.0309 -0.0453236 -0.550528 -0.834793 -0.00629784
42.5144 76.6777 -0.0438911 -0.534935 -0.84482 -0.0111404
41.6196 77.2365 -0.0400611 -0.524703 -0.85124 -0.00879149
40.75 77.7639 -0.0352332 -0.514245 -0.857613 -0.00719161
39.7132 78.369 -0.0329501 -0.499346 -0.866388 -0.00505702
38.7987 78.8893 -0.0291596 -0.487917 -0.872866 -0.00655564
37.8274 79.4218 -0.0253341 -0.477239 -0.878704 -0.0110699
36.7872 79.9699 -0.0226005 -0.45359 -0.891138 -0.0113302
35.76 80.4799 -0.0187017 -0.436326 -0.899778 -0.00429986
34.7619 80.9481 -0.0160367 -0.410772 -0.911546 -0.0187466
33.7373 81.3891 -0.0127594 -0.378901 -0.925403 -0.00799318
32.6454 81.8107 -0.00822125 -0.341983 -0.939704 -0.00183977
31.4814 82.2189 -0.00504775 -0.314086 -0.949391 -0.00262808
30.562 82.4913 -0.00138008 -0.267749 -0.963397 -0.0132846
30.4502 82.5361 -0.920696 -0.267214 -0.963595 -0.00899389
31.4797 82.2261 -0.924832 -0.304779 -0.95224 -0.018673
32.4422 81.8936 -0.929511 -0.343531 -0.939093 -0.00953197
33.4257 81.5195 -0.935641 -0.367457 -0.93004 0.000477134
34.3905 81.1161 -0.944221 -0.396239 -0.918147 -0.00069368
35.3199 80.6959 -0.95281 -0.427072 -0.904217 -0.0006502
36.3161 80.2098 -0.963088 -0.445798 -0.895118 -0.00524843
37.2582 79.7358 -0.971454 -0.462931 -0.886315 -0.0118363
38.1499 79.2568 -0.980802 -0.477418 -0.87863 -0.00899949
39.1972 78.6718 -0.991131 -0.498451 -0.866894 -0.00642294
40.1565 78.1192 -1.00047 -0.499828 -0.866103 -0.00613536
41.0484 77.5937 -1.0093 -0.518517 -0.855032 -0.00777268
42.0016 77.0097 -1.01585 -0.526474 -0.850188 -0.00257392
42.9205 76.4295 -1.02466 -0.540645 -0.841215 -0.0078071
43.4466 76.0834 -1.0294 -0.551801 -0.833957 -0.00554207
43.4707 76.0751 -2.01159 -0.545254 -0.83824 -0.00722779
42.6002 76.634 -2.00298 -0.532784 -0.846251 0.000963304
41.6772 77.2137 -1.99088 -0.526793 -0.849994 -0.000462439
40.7958 77.7506 -1.97833 -0.507687 -0.861519 -0.00621582
39.7352 78.3684 -1.96224 -0.501492 -0.865139 -0.00632528
38.7689 78.9243 -1.94407 -0.48968 -0.871869 -0.00762637
37.7141 79.4989 -1.92719 -0.468025 -0.883715 -0.000959322
36.7601 79.9936 -1.91252 -0.450711 -0.892655 -0.00526403
35.8059 80.4654 -1.89548 -0.437308 -0.899302 -0.00424196
34.8976 80.8919 -1.88256 -0.414196 -0.910186 0.00189694
33.8139 81.3616 -1.86589 -0.385566 -0.92268 0.000371834
32.8529 81.7422 -1.85318 -0.355523 -0.934628 -0.00863339
31.863 82.1036 -1.84188 -0.325481 -0.945466 -0.0124768
30.8675 82.4235 -1.83393 -0.282797 -0.959179 0.00120337
30.4674 82.537 -1.83024 -0.267893 -0.963423 0.00700475
30.3893 82.5494 -2.74204 -0.270782 -0.962543 0.0137163
31.3758 82.2681 -2.75113 -0.292814 -0.956169 -0.000997591
32.347 81.9424 -2.7644 -0.354556 -0.934981 -0.0100716
33.3685 81.5451 -2.78188 -0.370682 -0.928744 -0.00536897
34.3694 81.1277 -2.80407 -0.396618 -0.91798 -0.00266
35.4104 80.6573 -2.82594 -0.420041 -0.907462 -0.00885026
36.4474 80.1568 -2.84964 -0.442929 -0.896519 -0.00818434
37.4308 79.6543 -2.87282 -0.465556 -0.885001 -0.00560958
38.3444 79.1638 -2.89411 -0.47792 -0.878399 -0.00267426
39.334 78.6072 -2.91629 -0.497766 -0.867308 -0.00245255
40.2042 78.1042 -2.93875 -0.502001 -0.86484 -0.00681298
41.1568 77.5404 -2.95799 -0.514981 -0.857115 -0.0121836
42.0331 76.9956 -2.97341 -0.531392 -0.847076 -0.00920115
43.0259 76.3664 -2.98938 -0.540968 -0.841038 -0.00288493
43.5679 76.0132 -2.99702 -0.546992 -0.837138 0.000392384
43.5485 76.0298 -3.98608 -0.549419 -0.8355 -0.00889799
42.6543 76.6122 -3.97017 -0.541523 -0.840647 -0.00812435
41.7725 77.1706 -3.95025 -0.528573 -0.84885 -0.00797955
40.8496 77.7334 -3.92558 -0.515292 -0.856987 -0.00690626
39.9288 78.273 -3.89777 -0.501231 -0.865283 -0.00720688
38.9839 78.8082 -3.8692 -0.489869 -0.871794 -0.00192422
37.9564 79.3766 -3.84023 -0.477822 -0.878452 -0.00267595
36.9862 79.8877 -3.80679 -0.459276 -0.888287 0.00340208
36.0803 80.3448 -3.7816 -0.429362 -0.90311 -0.00630309
35.1227 80.7937 -3.75394 -0.409342 -0.91238 0.00156717
34.1097 81.2404 -3.72554 -0.392164 -0.919893 -0.00216131
33.0344 81.6839 -3.6951 -0.373043 -0.927797 -0.00565913
31.9576 82.0834 -3.67187 -0.323796 -0.946121 -0.0034023
30.8655 82.4252 -3.65349 -0.275612 -0.961059 -0.0201014
30.3646 82.565 -3.64813 -0.26263 -0.964737 -0.0175626
30.4445 82.5636 -4.55039 -0.276511 -0.960963 -0.00957399
31.409 82.2698 -4.5699 -0.311261 -0.950325 -0.000430667
32.3803 81.9451 -4.59299 -0.337427 -0.941336 -0.00536708
33.3119 81.5801 -4.62159 -0.382454 -0.923918 -0.0102357
34.3151 81.1549 -4.65929 -0.399109 -0.916903 -0.00113696
35.3923 80.6743 -4.69724 -0.420953 -0.907071 0.00462964
36.3988 80.189 -4.73355 -0.44635 -0.894849 -0.00412953
37.3966 79.676 -4.77187 -0.461327 -0.887224 -0.00333198
38.286 79.201 -4.80506 -0.481201 -0.876535 -0.0115049
39.2071 78.6905 -4.84051 -0.488533 -0.872476 -0.0110133
40.0778 78.1938 -4.86966 -0.5033 -0.864086 -0.00670822
41.1273 77.5715 -4.90883 -0.515799 -0.856708 -0.00173151
42.0553 76.9981 -4.93978 -0.533975 -0.845496 -0.00269787
43.0151 76.3872 -4.96535 -0.541102 -0.840906 -0.00923693
43.5546 76.0381 -4.97654 -0.546457 -0.837396 -0.0123283
35.9793 80.3982 -5.65741 -0.441689 -0.897168 -0.00035121
35.0477 80.8368 -5.61714 -0.411506 -0.911405 0.00172189
33.9472 81.3128 -5.56793 -0.389876 -0.920867 0.000733027
32.944 81.7307 -5.52584 -0.373941 -0.927375 -0.0120086
31.9532 82.0927 -5.48925 -0.328065 -0.944655 -0.00065326
30.9565 82.4102 -5.46356 -0.294275 -0.955717 -0.00269074
30.4826 82.5515 -5.45344 -0.271917 -0.96232 0.00054751
30.4747 82.5538 -5.45328 -0.275176 -0.961388 0.00338933
