-16.6687 93.418 5.47822 -0.589525 -0.80775 -0.000963067
-16.1571 93.0411 6.09856 -0.590441 -0.807054 0.000768505
-15.342 92.4541 6.09821 -0.576045 -0.817415 -0.00211606
-14.3253 91.7524 6.11405 -0.559048 -0.829117 0.00547707
-13.3409 91.1143 6.11674 -0.525911 -0.850536 0.000463433
-12.4295 90.5813 6.12843 -0.488485 -0.872439 0.0148526
-11.4944 90.0781 6.1044 -0.449887 -0.892985 0.0133584
-10.5813 89.6589 6.11271 -0.393749 -0.919038 0.0181571
-9.60754 89.2904 6.1172 -0.315646 -0.948751 -0.00323243
-8.52701 89.0432 6.11081 -0.157858 -0.987324 0.016515
-7.47678 88.9698 6.10306 0.0137878 -0.999505 -0.0132149
-6.40129 89.0456 6.11593 0.133452 -0.987779 0.0805162
-5.3203 89.2882 6.09619 0.252196 -0.967448 0.0210126
-4.35892 89.591 6.12194 0.346498 -0.93758 0.00736007
-3.3651 90.0465 6.12978 0.470672 -0.882222 0.000335271
-2.50541 90.5578 6.1199 0.54986 -0.834848 0.0160317
-1.6698 91.1607 6.098 0.611294 -0.791369 -0.00161321
-0.840199 91.8264 6.10322 0.637803 -0.769969 0.015524
-0.0408887 92.5498 6.06698 0.682344 -0.731015 -0.00485468
0.654197 93.2129 5.88601 0.688115 -0.725541 -0.00398645
0.668638 93.2079 4.82879 0.69652 -0.717375 0.0139565
0.678847 93.2033 3.77182 0.707837 -0.706347 0.00544141
0.675395 93.2003 2.74699 0.702104 -0.712062 -0.004295
0.661087 93.1991 1.68395 0.705404 -0.708307 -0.0215479
0.638646 93.2057 0.673833 0.715207 -0.69883 -0.0100013
0.650711 93.225 -0.328341 0.711357 -0.702821 0.00187617
0.655422 93.2208 -1.42449 0.709501 -0.704657 0.00821869
0.63132 93.1872 -2.59757 0.703469 -0.71071 0.00484146
0.652084 93.2008 -3.64328 0.700154 -0.713992 0.000306353
0.62559 93.182 -4.75634 0.697643 -0.716387 -0.00919064
0.638659 93.2039 -5.76857 0.702404 -0.711778 0.000953185
-0.0433175 92.5547 -6.10673 0.669569 -0.742733 -0.00493952
-0.834828 91.8565 -6.09193 0.64941 -0.760319 -0.0134725
-1.64442 91.1941 -6.10888 0.607952 -0.793831 -0.00515562
-2.50723 90.5615 -6.09889 0.570047 -0.821525 -0.00943609
-3.38182 90.0008 -6.09419 0.48692 -0.873314 0.0152342
-4.36895 89.5381 -6.09052 0.382883 -0.923785 -0.00287003
-5.37174 89.2115 -6.10156 0.253171 -0.967368 -0.0101691
-6.40996 88.9901 -6.11734 0.158756 -0.985824 -0.0467504
-7.54708 88.9383 -6.09275 -0.0658951 -0.997748 0.0060431
-8.57225 89.0569 -6.11021 -0.168982 -0.985489 -0.0160091
-9.6847 89.3211 -6.10465 -0.257962 -0.965941 -0.0201681
-10.6571 89.6509 -6.1167 -0.375536 -0.926453 0.00777376
-11.6304 90.1104 -6.11775 -0.439731 -0.89813 0.000222967
-12.5877 90.6037 -6.0914 -0.480532 -0.876909 -0.0109335
-13.5343 91.1726 -6.07172 -0.537743 -0.843036 -0.00400725
-14.4052 91.7551 -6.11385 -0.571486 -0.82061 0.000262532
-15.321 92.4154 -6.12856 -0.595686 -0.803184 -0.00726222
-16.2054 93.0778 -6.09493 -0.602837 -0.797849 -0.00482523
-16.6208 93.3868 -5.28654 -0.603595 -0.797291 -0.000819719
-16.5795 93.357 -4.26025 -0.60397 -0.797005 0.00186045
-16.5834 93.3575 -3.17663 -0.60429 -0.796754 -0.00411089
-16.6075 93.3657 -2.11259 -0.602256 -0.798238 -0.010214
-16.6364 93.3791 -1.09256 -0.604092 -0.796911 -0.00142906
-16.5831 93.3424 -0.0418617 -0.60833 -0.793644 0.00800315
-16.5855 93.3544 0.975593 -0.605682 -0.795682 0.00593552
-16.5555 93.3382 2.07294 -0.60006 -0.799953 0.00162898
-16.5756 93.3543 3.12502 -0.597161 -0.802121 -0.000358839
-16.6047 93.375 4.15967 -0.592715 -0.805405 -0.00300387
-16.6622 93.4136 5.19353 -0.590812 -0.806802 -0.0035277
-16.6636 93.4145 5.23059 -0.589518 -0.807755 -0.000949408
-17.4401 93.9857 5.19718 -0.596235 -0.802805 -0.00287375
-17.4012 93.9643 6.3524 -0.595208 -0.803538 0.0074062
-17.0429 93.7061 7.05673 -0.593455 -0.804848 0.00564182
-16.176 93.0633 7.05736 -0.593225 -0.805014 0.00557118
-15.2642 92.403 7.03397 -0.576362 -0.817194 0.00133461
-14.3316 91.7658 7.06972 -0.556069 -0.831017 0.0140084
-13.3911 91.155 7.05835 -0.517534 -0.855638 0.00644859
-12.5085 90.6393 7.07231 -0.493359 -0.869636 0.0181486
-11.5949 90.1394 7.0551 -0.465021 -0.885213 -0.00476621
-10.5918 89.6798 7.07124 -0.386584 -0.922018 0.0208767
-9.51438 89.2814 7.05602 -0.283886 -0.957203 0.0385972
-8.45593 89.0486 7.04971 -0.141147 -0.988594 0.0525232
-7.41973 89.0033 7.04033 0.0405972 -0.998716 0.0302982
-6.36472 89.0848 7.06222 0.132327 -0.990156 0.0443452
-5.36623 89.305 7.05184 0.258284 -0.965837 0.0211613
-4.38517 89.5922 7.06498 0.301117 -0.953115 0.0300133
-3.30193 90.0739 7.06647 0.49819 -0.866894 -0.0173336
-2.44297 90.5972 7.05743 0.547338 -0.836714 -0.00414248
-1.59057 91.2341 7.0404 0.622229 -0.78276 0.010864
-0.785822 91.8922 7.06061 0.632789 -0.774208 0.0134222
-0.000363294 92.5771 7.04153 0.674024 -0.738668 -0.00781841
0.743316 93.2813 7.05062 0.689059 -0.724684 -0.00543954
1.35693 93.8782 6.67239 0.695446 -0.718555 -0.0058064
1.35897 93.8873 5.56917 0.693661 -0.720297 0.00269516
1.34817 93.8747 4.50154 0.706631 -0.707564 -0.00346462
1.33322 93.8652 3.39465 0.717821 -0.696173 -0.00605516
1.34486 93.8898 2.39187 0.723849 -0.689919 -0.00674233
1.29037 93.8552 1.36984 0.718394 -0.695239 -0.0232742
1.29246 93.8822 0.220117 0.714666 -0.699424 -0.00760905
1.31778 93.9052 -0.813047 0.717148 -0.696884 0.00715415
1.31326 93.8867 -1.91435 0.717564 -0.696372 0.0121487
1.31757 93.8784 -2.95329 0.728976 -0.684532 0.0032076
1.30811 93.8695 -4.01216 0.736707 -0.676198 0.000517286
1.29262 93.8575 -5.08637 0.713904 -0.700238 -0.00256367
1.33416 93.898 -6.12626 0.710398 -0.703709 0.0105643
1.12526 93.6726 -7.04975 0.709173 -0.704811 0.0177489
0.329187 92.9013 -7.05403 0.691129 -0.72272 -0.00329454
-0.494353 92.1541 -7.05106 0.652411 -0.757813 -0.0088978
-1.28766 91.4923 -7.06261 0.62952 -0.776939 -0.0084071
-2.11868 90.8436 -7.05725 0.581487 -0.812791 0.0193844
-3.09208 90.1908 -7.04639 0.541631 -0.840453 -0.0165896
-4.03279 89.6764 -7.04839 0.39063 -0.920197 -0.0132107
-5.08531 89.3151 -7.04522 0.289312 -0.955848 -0.0515079
-6.09876 89.0877 -7.05431 0.187187 -0.981217 -0.0465142
-7.11471 88.9477 -7.04267 0.0583039 -0.99661 -0.0580418
-8.19383 88.9933 -7.05235 -0.178816 -0.983577 -0.0245388
-9.30928 89.2303 -7.03597 -0.244082 -0.969563 -0.0192855
-10.3049 89.5355 -7.04372 -0.347445 -0.936588 -0.0456544
-11.3148 89.96 -7.06566 -0.418603 -0.907697 -0.0270299
-12.2853 90.4417 -7.05895 -0.468658 -0.883353 0.00684439
-13.2402 91.0007 -7.03302 -0.524897 -0.851012 -0.0161804
-14.0948 91.5452 -7.05037 -0.551388 -0.834183 0.00653848
-14.9414 92.1458 -7.07221 -0.588158 -0.808701 -0.00852383
-15.8311 92.8022 -7.05063 -0.600406 -0.799671 -0.00607542
-16.6404 93.4157 -7.05269 -0.605247 -0.796017 -0.00568336
-17.3365 93.9393 -6.72565 -0.602863 -0.797777 -0.0103693
-17.3935 93.9707 -5.71466 -0.602527 -0.798077 -0.00580361
-17.3558 93.9427 -4.65552 -0.601852 -0.7986 0.00349053
-17.3239 93.92 -3.64005 -0.603624 -0.797268 -0.00139954
-17.3404 93.9249 -2.56879 -0.603303 -0.797473 -0.00790207
-17.3953 93.9551 -1.34629 -0.606891 -0.79477 -0.00492389
-17.3488 93.9253 -0.301288 -0.60738 -0.794381 0.0069156
-17.3468 93.9315 0.706003 -0.604072 -0.796907 0.00579919
-17.3096 93.9084 1.81618 -0.602727 -0.797945 -0.00218976
-17.3306 93.9214 2.8309 -0.602078 -0.798433 -0.00250197
-17.3491 93.9295 3.87313 -0.598883 -0.800811 -0.00638365
-17.4262 93.9763 4.94688 -0.595733 -0.803172 -0.00384
-17.4291 93.9783 4.98017 -0.596236 -0.802804 -0.00287157
-16.1711 93.0555 4.83096 -0.590312 -0.807172 -0.00231634
-15.3433 92.455 4.803 -0.583129 -0.812335 0.00848133
-14.5061 91.8655 4.77391 -0.563223 -0.826305 0.000341695
-13.653 91.3038 4.73974 -0.537091 -0.843521 0.00212422
-12.744 90.7442 4.70279 -0.500195 -0.865818 0.0127828
-11.8592 90.2523 4.66494 -0.477453 -0.878616 0.00853156
-10.9601 89.8055 4.6332 -0.40389 -0.914387 0.0277396
-9.94807 89.4015 4.60613 -0.325069 -0.945689 0.00136261
-8.88592 89.1256 4.58888 -0.165828 -0.985895 -0.0226371
-7.72135 88.9823 4.58229 -0.0369682 -0.999242 0.0122167
-6.59684 89.0331 4.60068 0.101431 -0.994528 0.0250094
-5.58589 89.1878 4.64149 0.269053 -0.963121 0.00287382
-4.62591 89.4859 4.70071 0.340236 -0.94009 0.0216996
-3.69761 89.8738 4.7627 0.460898 -0.887311 0.0158803
-2.7437 90.4012 4.84223 0.508022 -0.861316 -0.00694666
-1.91117 90.9774 4.91415 0.59693 -0.802271 -0.00601345
-1.11529 91.5921 4.98898 0.623507 -0.781582 0.0191801
-0.314613 92.2832 5.06109 0.678984 -0.733731 0.0248956
0.223683 92.7886 5.1038 0.690028 -0.723478 0.0209911
0.32262 92.854 4.07849 0.684924 -0.728529 0.0111802
-0.445549 92.1493 4.03259 0.64955 -0.760241 0.0108785
-1.24629 91.4914 3.97425 0.625135 -0.780517 0.000108718
-2.05963 90.8541 3.91876 0.596019 -0.802962 0.00369473
-2.96181 90.2668 3.86355 0.512338 -0.858727 -0.00994017
-3.87334 89.7871 3.80593 0.431422 -0.90215 -0.000328303
-4.82959 89.3961 3.76012 0.324375 -0.944838 0.0454085
-5.83314 89.1184 3.72078 0.194801 -0.980354 0.030949
-6.96555 88.9733 3.69673 0.0720087 -0.997156 0.022244
-7.96945 88.9757 3.68563 -0.118951 -0.992896 -0.0029731
-9.15422 89.1659 3.69067 -0.185166 -0.982391 0.0249243
-10.1556 89.4644 3.70309 -0.331915 -0.943239 0.011505
-11.1714 89.8834 3.71912 -0.442548 -0.896716 0.00725724
-12.1042 90.3718 3.74521 -0.482179 -0.876014 0.0101323
-12.9977 90.8831 3.76996 -0.503441 -0.863941 0.0123724
-13.995 91.5213 3.80073 -0.546804 -0.837233 0.00680261
-14.9476 92.1646 3.82337 -0.583246 -0.812295 0.000631944
-15.8008 92.7841 3.84795 -0.590524 -0.80702 -0.00032236
-16.1892 93.069 3.85319 -0.59387 -0.804561 -0.000133192
-16.1843 93.0647 2.87588 -0.594295 -0.804247 -0.000707825
-15.2681 92.3954 2.86501 -0.586894 -0.809661 -0.00216923
-14.4227 91.8002 2.85061 -0.561602 -0.827407 0.00119608
-13.5019 91.1929 2.83615 -0.540217 -0.841499 0.00667251
-12.5743 90.6261 2.81745 -0.496437 -0.868058 -0.00512975
-11.6117 90.0983 2.79943 -0.462798 -0.886429 0.00777936
-10.7061 89.6536 2.78768 -0.403818 -0.914769 0.0113532
-9.76633 89.3003 2.78041 -0.302245 -0.95323 -0.00113217
-8.66178 89.0494 2.77887 -0.174855 -0.983969 0.0350968
-7.62979 88.9265 2.77887 -0.103568 -0.994621 0.00177434
-6.62265 88.9732 2.78727 0.125467 -0.992067 0.00781253
-5.52338 89.1751 2.80847 0.23539 -0.971877 0.00681904
-4.44429 89.5238 2.84093 0.370284 -0.928778 0.0161887
-3.42233 90.0116 2.87558 0.461769 -0.886999 -0.00148162
-2.52103 90.539 2.91895 0.54785 -0.836402 0.0170865
-1.66416 91.1508 2.9585 0.610194 -0.79225 -0.00156687
-0.863314 91.7977 3.00481 0.635294 -0.772209 0.00971337
-0.0747419 92.4806 3.03288 0.674625 -0.738012 -0.014831
0.306327 92.8364 3.04416 0.688829 -0.724841 -0.0110044
0.30682 92.8526 2.03464 0.682677 -0.730617 -0.0122504
-0.445888 92.1616 2.00779 0.670701 -0.741706 -0.00567177
-1.28856 91.4381 1.98909 0.623704 -0.781554 0.0129169
-2.10532 90.8227 1.96 0.571526 -0.820466 -0.0139095
-3.08102 90.2006 1.92978 0.501739 -0.864952 0.010769
-4.10151 89.6735 1.9055 0.440261 -0.897778 -0.0128712
-5.13005 89.2649 1.89769 0.261169 -0.96513 -0.0177559
-6.1512 89.0353 1.87465 0.187647 -0.982209 0.0073548
-7.27726 88.91 1.87012 0.0271074 -0.999533 -0.0141239
-8.29783 88.9627 1.86136 -0.156476 -0.987482 0.0198496
-9.29694 89.1629 1.85291 -0.259506 -0.96498 0.0383409
-10.3007 89.4835 1.85605 -0.362839 -0.931823 0.00731937
-11.2956 89.9299 1.86274 -0.460457 -0.887659 -0.006433
-12.2149 90.415 1.87119 -0.481751 -0.876254 0.00969928
-13.1092 90.9351 1.88283 -0.528636 -0.84883 0.00558974
-14.0809 91.5654 1.892 -0.555594 -0.831361 0.0124135
-14.9435 92.1598 1.9049 -0.581275 -0.813687 0.00570813
-15.8674 92.8258 1.91009 -0.591074 -0.806567 0.0090392
-16.1717 93.051 1.91093 -0.59361 -0.804729 0.00622654
-16.1459 93.0209 0.946181 -0.601487 -0.798873 0.0040481
-15.1854 92.3189 0.942125 -0.580805 -0.813935 0.0132246
-14.335 91.7197 0.940162 -0.56393 -0.825728 0.0124921
-13.4835 91.1639 0.936687 -0.537937 -0.842869 0.0139576
-12.5443 90.592 0.933544 -0.490077 -0.871674 -0.00311616
-11.6446 90.1 0.930918 -0.467712 -0.883814 0.0109058
-10.6718 89.6445 0.927663 -0.395098 -0.918622 -0.00559457
-9.68248 89.2574 0.929929 -0.308549 -0.951102 0.0142234
-8.58536 88.9843 0.93392 -0.179242 -0.983231 0.0335963
-7.58525 88.8926 0.933986 0.00613737 -0.999978 0.00246958
-6.52801 88.9585 0.94123 0.121599 -0.992041 0.0326934
-5.38818 89.1866 0.937919 0.291454 -0.95648 0.0142019
-4.37458 89.5578 0.95339 0.399021 -0.91674 0.0192347
-3.44341 90.0031 0.960318 0.463345 -0.886178 -0.000703298
-2.57443 90.5091 0.972723 0.53621 -0.844041 0.00852395
-1.67926 91.1439 0.986078 0.615866 -0.787791 -0.00972597
-0.815091 91.8453 0.998322 0.650848 -0.758848 -0.0233719
-0.00141515 92.5772 1.01025 0.684692 -0.728731 -0.0121713
0.217096 92.7829 1.0121 0.687765 -0.725856 -0.0105718
0.30983 92.882 0.00515103 0.706409 -0.707757 -0.00815196
-0.498924 92.1324 -0.00126478 0.658373 -0.752663 0.0065587
-1.2778 91.4795 -0.00395229 0.638575 -0.769558 0.00155348
-2.15514 90.7879 -0.00281855 0.599637 -0.800193 0.0112638
-3.03342 90.2248 0.00216191 0.514086 -0.857721 0.00558213
-4.00658 89.7113 0.00448773 0.415033 -0.909806 0.000791648
-4.93612 89.3255 -0.000756444 0.337598 -0.941179 -0.0144705
-5.91064 89.0471 0.000756918 0.22589 -0.974069 0.0127916
-7.08573 88.8859 0.00219183 0.0172188 -0.999794 0.0107379
-8.11586 88.908 -0.000169106 -0.082185 -0.996122 -0.0314064
-9.10951 89.0917 0.00378832 -0.205831 -0.978382 -0.0200709
-10.0656 89.4025 -0.00292632 -0.364359 -0.931241 -0.00573622
-11.117 89.8423 -0.005884 -0.420602 -0.907245 -0.000644677
-12.0316 90.2989 -0.00753569 -0.484677 -0.874642 0.00951457
-12.9635 90.8399 -0.00911227 -0.513642 -0.858003 -0.00166221
-13.9365 91.4476 -0.0108501 -0.54975 -0.835317 0.00457923
-14.8487 92.0674 -0.0156553 -0.577419 -0.816387 0.0099447
-15.8167 92.7655 -0.0114355 -0.588959 -0.808147 0.00505331
-16.1007 92.9764 -0.011542 -0.602626 -0.798007 0.00508764
-16.1566 93.0178 -0.974302 -0.6014 -0.798948 7.93403e-05
-15.3356 92.4121 -0.971739 -0.591342 -0.806414 -0.00333159
-14.5146 91.83 -0.966536 -0.566157 -0.824275 -0.00608979
-13.5101 91.1707 -0.958157 -0.536891 -0.843627 0.00640803
-12.5901 90.6135 -0.95144 -0.506529 -0.86218 0.00858429
-11.6417 90.0852 -0.945036 -0.459462 -0.88803 0.0172208
-10.6286 89.6168 -0.936155 -0.399069 -0.916876 0.0091163
-9.68506 89.2682 -0.934778 -0.323958 -0.946071 -0.000896873
-8.59532 88.981 -0.938602 -0.189748 -0.981774 0.0107286
-7.59773 88.8949 -0.939291 -0.0279337 -0.999609 0.00111816
-6.51269 88.923 -0.937164 0.0667834 -0.997721 0.00967955
-5.31534 89.1989 -0.939318 0.29587 -0.955031 0.0194152
-4.31809 89.5666 -0.95011 0.408318 -0.912821 0.00588127
-3.39757 90.0162 -0.962878 0.493672 -0.86961 -0.0082003
-2.47299 90.5704 -0.97281 0.548318 -0.836019 0.0204742
-1.64062 91.1725 -0.985264 0.615172 -0.788327 0.0101383
-0.843377 91.8209 -0.999674 0.660947 -0.750427 0.00290401
0.0390872 92.623 -1.01378 0.687173 -0.726379 -0.0128706
0.268935 92.8414 -1.01759 0.704513 -0.709689 0.00197388
0.289852 92.8593 -2.02599 0.690724 -0.723085 0.00705339
-0.525511 92.0979 -2.00539 0.672605 -0.74 -0.00178143
-1.3241 91.4199 -1.97988 0.621752 -0.783214 0.000612618
-2.13862 90.801 -1.9535 0.593616 -0.804748 -0.000428812
-3.02196 90.2307 -1.93132 0.505245 -0.862897 0.0116681
-3.93598 89.73 -1.9088 0.443847 -0.895802 0.0232111
-4.88733 89.334 -1.88452 0.339562 -0.940356 -0.0206972
-5.93511 89.0292 -1.8797 0.216404 -0.97602 0.0235285
-6.99364 88.8884 -1.86538 0.0365682 -0.999175 0.0176732
-8.01667 88.8991 -1.86445 -0.0642562 -0.997361 0.0337921
-9.06892 89.0856 -1.86638 -0.21622 -0.976338 -0.00373272
-10.0496 89.3963 -1.87131 -0.334421 -0.942424 0.000723316
-11.1329 89.8311 -1.87593 -0.424596 -0.905317 0.0109404
-12.1124 90.3388 -1.88668 -0.489158 -0.872156 0.00823189
-13.0422 90.8767 -1.90079 -0.519218 -0.854556 0.0120865
-13.9126 91.4245 -1.91357 -0.54593 -0.837827 -0.00246383
-14.83 92.0507 -1.92473 -0.580024 -0.814587 -0.00457926
-15.8102 92.7669 -1.93666 -0.59544 -0.803367 -0.00722856
-16.0954 92.9799 -1.93817 -0.598927 -0.800751 -0.00920523
-16.0838 92.9785 -2.90638 -0.601769 -0.79866 -0.00411624
-15.2531 92.3615 -2.89331 -0.592102 -0.805863 -0.000810797
-14.428 91.7687 -2.87662 -0.568118 -0.822947 -0.000416591
-13.5166 91.1654 -2.85761 -0.540341 -0.841424 0.00617818
-12.6615 90.6412 -2.83683 -0.503761 -0.863831 -0.00455587
-11.7768 90.1543 -2.81816 -0.468714 -0.88335 0.000164506
-10.7107 89.6659 -2.80015 -0.369841 -0.928107 -0.0428317
-9.75705 89.3063 -2.79102 -0.328783 -0.944399 -0.00341856
-8.72573 89.0186 -2.7818 -0.170609 -0.984559 -0.0391886
-7.5898 88.9 -2.77972 -0.0465063 -0.998385 -0.0326421
-6.47072 88.9532 -2.79537 0.13523 -0.989887 -0.0428527
-5.30523 89.2045 -2.81756 0.306416 -0.951514 -0.0270288
-4.30271 89.5791 -2.85046 0.374644 -0.927083 -0.0126117
-3.31148 90.048 -2.88258 0.492148 -0.87019 0.0236786
-2.38121 90.6277 -2.92254 0.572194 -0.820116 0.00178302
-1.46568 91.302 -2.96033 0.611457 -0.791227 0.00892962
-0.68609 91.9521 -2.99751 0.657262 -0.753583 -0.0109428
0.125837 92.6978 -3.02724 0.685186 -0.728365 0.00211236
0.274026 92.8377 -3.03218 0.69139 -0.722454 0.00631114
0.267498 92.8312 -4.07102 0.683218 -0.730086 -0.0137122
-0.491785 92.1401 -4.02563 0.66364 -0.747987 -0.0098745
-1.34076 91.404 -3.96845 0.641167 -0.767285 -0.0133758
-2.1819 90.7694 -3.91389 0.581464 -0.813563 0.00379123
-3.04594 90.2033 -3.85397 0.507553 -0.861609 0.00452168
-3.93292 89.7459 -3.80336 0.420884 -0.906825 -0.0229128
-4.86522 89.3544 -3.76074 0.351663 -0.936125 0.00157137
-5.9471 89.0471 -3.72354 0.154857 -0.987556 -0.0274319
-7.14514 88.933 -3.69726 0.038974 -0.997815 -0.0533487
-8.22041 88.9692 -3.6959 -0.0773059 -0.996044 -0.0438284
-9.31775 89.1741 -3.70179 -0.253845 -0.967245 0.000764937
-10.3639 89.5441 -3.71522 -0.363816 -0.931227 0.0213028
-11.4386 89.9905 -3.74187 -0.390044 -0.920781 0.00528981
-12.4982 90.5458 -3.77308 -0.48964 -0.871888 -0.00801408
-13.3591 91.062 -3.8022 -0.534858 -0.844904 0.00799963
-14.2441 91.6369 -3.83139 -0.562512 -0.826739 0.00911261
-15.1155 92.2596 -3.85763 -0.594721 -0.803929 0.0023828
-16.0373 92.9467 -3.87865 -0.602102 -0.798415 -0.00252772
-16.1777 93.053 -3.88131 -0.603582 -0.797296 -0.00270106
-16.1931 93.0644 -4.86304 -0.601511 -0.798864 -0.000151356
-15.3751 92.4518 -4.84018 -0.597546 -0.801834 -0.00113556
-14.4781 91.7985 -4.80461 -0.577208 -0.816596 0.0014224
-13.5528 91.1834 -4.76357 -0.539949 -0.841664 0.00750345
-12.6751 90.6458 -4.72295 -0.49473 -0.869028 0.00568074
-11.6385 90.0947 -4.67315 -0.449121 -0.893467 -0.00258707
-10.6711 89.6463 -4.63865 -0.38324 -0.923647 0.00171854
-9.71393 89.3075 -4.6121 -0.288834 -0.957303 -0.0120309
-8.66263 89.0543 -4.59742 -0.151901 -0.988011 -0.0275758
-7.44241 88.9424 -4.60601 -0.00952274 -0.99995 -0.00313997
-6.38703 88.9814 -4.62335 0.11595 -0.992967 0.0239064
-5.17602 89.2497 -4.66758 0.328213 -0.944604 0.000329747
-4.1899 89.6397 -4.73191 0.405889 -0.913916 0.00348725
-3.15847 90.135 -4.80822 0.443035 -0.896374 -0.0152704
-2.31245 90.6833 -4.88583 0.585735 -0.810453 -0.00895469
-1.48946 91.3006 -4.95772 0.625953 -0.779784 -0.0109634
-0.674602 91.9881 -5.03163 0.661544 -0.749885 -0.00567912
0.118832 92.7029 -5.09697 0.677104 -0.735878 -0.0036658
0.20056 92.778 -5.10299 0.684705 -0.728756 -0.00969178
-4.60578 89.4497 -5.6203 0.371638 -0.928107 0.0224268
-5.58338 89.136 -5.54942 0.211208 -0.976463 -0.0437162
-6.66853 88.9438 -5.50369 0.0915658 -0.993825 -0.0626717
-7.67312 88.9513 -5.48675 -0.0720701 -0.997343 0.010649
-8.69986 89.0731 -5.48891 -0.171058 -0.985253 -0.00388643
-9.68091 89.3069 -5.50891 -0.255804 -0.966476 -0.0221116
-10.6275 89.636 -5.54803 -0.380064 -0.924631 -0.0246827
-11.6089 90.0964 -5.59866 -0.444862 -0.895539 -0.0103467
-12.1154 90.3487 -5.62539 -0.461053 -0.887298 -0.0114916
-12.8444 90.8097 5.64853 -0.50627 -0.86209 0.0221631
-11.945 90.3091 5.60087 -0.479121 -0.877708 0.00842119
-11.0511 89.8532 5.55409 -0.434329 -0.900597 0.0168228
-10.0974 89.4591 5.51428 -0.353503 -0.935361 0.0116142
-9.12453 89.1544 5.49236 -0.221299 -0.974339 -0.0411124
-8.00776 88.995 5.47953 -0.0698699 -0.997548 -0.00402768
-6.95655 88.9891 5.49958 0.0538792 -0.998413 0.016406
-5.88869 89.1433 5.53398 0.223222 -0.97404 0.0376607
-4.92205 89.3994 5.59538 0.305294 -0.952031 0.0207809
-4.27147 89.6196 5.64239 0.383921 -0.923363 -0.00220917
-4.06408 89.7083 5.66018 0.394687 -0.918656 -0.0171111
