-13.4428 93.8138 -0.625074 -0.556571 -0.830768 0.000466416
-13.4166 93.7979 -1.69558 -0.544648 -0.838658 -0.00348241
-13.3998 93.781 -2.76446 -0.561408 -0.8274 0.0101687
-13.3773 93.7578 -3.8038 -0.545884 -0.837843 0.00542916
-13.4039 93.7718 -4.88844 -0.547109 -0.837059 0.000653293
-13.3419 93.7312 -5.98457 -0.552756 -0.833331 -0.00440983
-12.4231 93.1642 -6.12207 -0.495489 -0.868451 -0.00597785
-11.4853 92.6623 -6.13369 -0.45897 -0.888432 0.00594102
-10.4647 92.2085 -6.11365 -0.367849 -0.929559 -0.0187262
-9.48035 91.8711 -6.12092 -0.294433 -0.954675 -0.0435726
-8.38983 91.6268 -6.13711 -0.129533 -0.991442 -0.000983154
-7.36891 91.5797 -6.14465 -0.001166 -0.999375 -0.0199001
-6.25415 91.677 -6.14518 0.194358 -0.980761 -0.00497123
-5.28063 91.9267 -6.10433 0.302432 -0.952979 0.00492589
-4.27547 92.2967 -6.13045 0.387488 -0.921256 0.0245702
-3.33384 92.8336 -6.13024 0.544498 -0.838566 -0.016324
-2.47289 93.4333 -6.11257 0.595961 -0.802943 -0.00254672
-2.02427 93.7702 -5.52492 0.613262 -0.789768 -0.0132639
-1.99609 93.7801 -4.41974 0.6061 -0.794845 -0.0254188
-1.95926 93.7826 -3.36673 0.619859 -0.78464 -0.0107177
-1.93984 93.7876 -2.30137 0.634987 -0.772493 -0.00223404
-1.92588 93.8003 -1.2077 0.638395 -0.76944 0.0203293
-1.92128 93.813 -0.125552 0.650314 -0.759459 -0.00789205
-1.92376 93.7756 0.945703 0.643701 -0.765175 -0.0125428
-1.88533 93.7901 2.03165 0.62901 -0.777078 0.0222724
-1.91025 93.7962 3.08738 0.611203 -0.79107 0.0252833
-1.91667 93.8171 4.16837 0.60386 -0.797042 0.00167919
-1.93588 93.7965 5.18917 0.617931 -0.786166 -0.0102038
-2.30084 93.5361 6.09434 0.582479 -0.812685 0.000512201
-3.15719 92.9523 6.11358 0.550589 -0.834571 0.0160125
-4.06813 92.4306 6.13339 0.450704 -0.892652 0.00625963
-5.00684 92.004 6.11867 0.377757 -0.925263 0.0344815
-6.05517 91.7036 6.12418 0.154898 -0.987002 0.0402637
-7.07471 91.5944 6.12186 0.0579348 -0.998316 0.00310472
-8.15955 91.6222 6.10386 -0.0795939 -0.99677 -0.00290849
-9.19547 91.8061 6.10353 -0.257883 -0.965884 0.0237573
-10.1752 92.1436 6.12061 -0.374022 -0.927413 0.00368688
-11.1859 92.5722 6.15664 -0.398319 -0.917245 3.60075e-05
-12.2815 93.1116 6.12522 -0.499067 -0.866019 0.0307285
-13.1528 93.6463 6.09199 -0.557525 -0.830135 0.00637077
-13.3833 93.8049 5.13854 -0.55183 -0.833809 -0.0151142
-13.3936 93.8257 4.06516 -0.546922 -0.837182 -0.00180627
-13.3727 93.8068 3.06084 -0.545587 -0.837944 0.0134956
-13.3859 93.7948 2.05516 -0.544393 -0.8386 0.0196352
-13.395 93.7867 0.92874 -0.551993 -0.833838 -0.00427877
-13.4356 93.8097 -0.106564 -0.55252 -0.833492 -0.0036909
-13.4409 93.8132 -0.497514 -0.551304 -0.834294 0.00406362
-14.2143 94.3482 -0.534362 -0.581094 -0.813789 0.00877094
-14.1899 94.3412 0.618699 -0.575731 -0.817632 0.00331418
-14.1922 94.3456 1.70642 -0.5869 -0.809656 -0.00236076
-14.155 94.3282 2.73865 -0.56986 -0.821706 0.0025077
-14.1987 94.3606 3.806 -0.557088 -0.830451 0.000713443
-14.1901 94.3524 4.97591 -0.569352 -0.822076 0.00451407
-14.1579 94.3415 6.06575 -0.574911 -0.818177 0.00704711
-14.0295 94.2616 7.0633 -0.578238 -0.815806 0.0100457
-13.1939 93.6757 7.08666 -0.567898 -0.823048 0.00149501
-12.3334 93.1551 7.08039 -0.493439 -0.869326 0.0281204
-11.3845 92.6672 7.09661 -0.441445 -0.896658 0.0330888
-10.3164 92.2107 7.08475 -0.375022 -0.927007 0.00386687
-9.29721 91.8636 7.06174 -0.314269 -0.949316 0.00578541
-8.31133 91.6446 7.08711 -0.136456 -0.990455 0.00482888
-7.23336 91.6098 7.08936 0.0391864 -0.998471 0.0389975
-6.13702 91.7114 7.08658 0.187973 -0.981658 0.0242221
-5.13273 91.9654 7.07218 0.334077 -0.941569 0.0408144
-4.16285 92.3817 7.08448 0.447108 -0.894168 0.00955145
-3.25477 92.9005 7.08094 0.548203 -0.835827 0.00486109
-2.34336 93.533 7.05854 0.57601 -0.817208 0.0195351
-1.44758 94.208 7.08687 0.642451 -0.766278 0.00856527
-1.20097 94.4069 6.17891 0.65734 -0.753587 -0.00317034
-1.18569 94.407 5.07185 0.642396 -0.76589 0.0177965
-1.14511 94.4152 3.95085 0.630709 -0.7758 0.0184241
-1.1579 94.4007 2.72579 0.660128 -0.751148 0.00296378
-1.16701 94.4092 1.67835 0.669584 -0.742247 -0.0269422
-1.21131 94.4114 0.57839 0.660736 -0.750252 -0.0234496
-1.20797 94.4329 -0.44911 0.66155 -0.749901 0.000692026
-1.20534 94.4216 -1.51748 0.667093 -0.744903 0.00750337
-1.20539 94.413 -2.54165 0.669626 -0.742645 0.00121675
-1.22414 94.4058 -3.69871 0.6681 -0.744046 -0.006127
-1.26326 94.3929 -4.79735 0.672046 -0.740457 -0.00883097
-1.2719 94.4074 -5.98038 0.659456 -0.751519 -0.0183546
-1.35894 94.3525 -7.03906 0.6547 -0.755568 -0.022027
-2.13262 93.7018 -7.08908 0.627695 -0.778248 -0.00728555
-3.04603 93.0354 -7.07407 0.547418 -0.83664 -0.00221272
-3.97867 92.46 -7.08862 0.51562 -0.856817 -0.000985311
-4.89064 92.0357 -7.06596 0.344223 -0.938839 -0.00953406
-5.91417 91.7367 -7.08074 0.238716 -0.970621 0.0110682
-6.9455 91.6068 -7.10708 0.0354353 -0.999346 0.00714217
-8.01191 91.6156 -7.11744 -0.0283304 -0.999537 0.0110919
-9.05986 91.7803 -7.08398 -0.253708 -0.967273 -0.00394108
-10.1913 92.1219 -7.07186 -0.307979 -0.951177 -0.0202776
-11.1773 92.5133 -7.08418 -0.439149 -0.898389 0.00669279
-12.0809 92.9888 -7.07396 -0.479419 -0.877342 -0.0207003
-13.0175 93.5258 -7.06855 -0.516712 -0.85611 -0.00914427
-13.8849 94.11 -7.06466 -0.577038 -0.816533 -0.017323
-14.2007 94.3296 -6.19463 -0.591481 -0.806317 -0.00182412
-14.201 94.3273 -5.09556 -0.58718 -0.809456 -0.000211421
-14.1796 94.3246 -3.96586 -0.587659 -0.808986 0.0141019
-14.1702 94.3218 -2.90513 -0.583233 -0.812284 -0.00442719
-14.2004 94.3339 -1.80679 -0.57637 -0.817175 -0.0025033
-14.2088 94.3413 -0.801068 -0.582893 -0.812512 0.00732998
-14.2133 94.3457 -0.688478 -0.581108 -0.813779 0.00877661
-12.9391 93.4862 -0.9409 -0.538791 -0.842436 -0.00247614
-12.0697 92.956 -0.936347 -0.500716 -0.865517 -0.0128156
-11.1728 92.4606 -0.931765 -0.429279 -0.90294 -0.0204527
-10.2372 92.0707 -0.927732 -0.334809 -0.942281 -0.00315783
-9.07811 91.7183 -0.924644 -0.235906 -0.971463 -0.0246664
-7.91578 91.5278 -0.925905 -0.0907072 -0.995753 -0.0157748
-6.86017 91.5322 -0.925376 0.120284 -0.99242 -0.0251782
-5.86168 91.7149 -0.932514 0.232677 -0.971921 -0.0350975
-4.84615 92.0477 -0.936548 0.329175 -0.944156 -0.0145957
-3.9028 92.4456 -0.940562 0.467301 -0.883204 -0.0397572
-2.95844 93.0124 -0.946799 0.549819 -0.835258 -0.00663417
-2.30534 93.4951 -0.946658 0.631071 -0.775719 0.00313017
-2.33306 93.4668 -0.00181319 0.612629 -0.790266 -0.0128713
-3.17442 92.8795 -0.000779634 0.542942 -0.839756 0.00492376
-4.10084 92.3402 -0.00347996 0.451658 -0.89208 -0.0140933
-5.05076 91.9424 -0.0047209 0.331132 -0.943395 -0.0189066
-6.06184 91.6531 -0.00506942 0.210107 -0.977418 -0.0225636
-7.128 91.4999 -0.00327806 0.0664878 -0.997406 -0.0275957
-8.29731 91.5724 -0.00464759 -0.117539 -0.993014 -0.0103494
-9.32699 91.7719 -0.00421328 -0.278945 -0.960262 -0.00931507
-10.4172 92.1257 -0.00332017 -0.369711 -0.92898 -0.0176174
-11.4792 92.6214 -0.0061638 -0.476637 -0.879094 -0.00330371
-12.3705 93.1312 -0.00812808 -0.515674 -0.856781 -0.00247091
-13.024 93.5382 -0.00881574 -0.547863 -0.836565 -0.00217006
-12.8962 93.4587 0.92442 -0.538576 -0.842293 0.0218764
-11.9943 92.917 0.921183 -0.499401 -0.866239 0.0151251
-11.1033 92.4389 0.919751 -0.466566 -0.884385 0.0133485
-10.136 92.0299 0.916544 -0.341378 -0.93989 0.00818927
-9.10911 91.7161 0.915994 -0.201844 -0.979239 -0.0186938
-8.04467 91.5606 0.912822 -0.0812383 -0.996622 -0.0120394
-7.01582 91.5177 0.916368 0.0246855 -0.998423 0.0504106
-5.81417 91.7024 0.924004 0.217368 -0.976078 -0.00484496
-4.83142 92.0119 0.927288 0.342378 -0.939033 0.0315316
-3.91313 92.4342 0.936308 0.474428 -0.880228 0.0107929
-3.00626 92.9828 0.943362 0.543421 -0.839258 -0.0184534
-2.3274 93.4527 0.946038 0.60082 -0.798647 -0.0343254
-2.27794 93.4824 1.8947 0.602538 -0.798077 0.00453967
-3.13254 92.8915 1.88659 0.528912 -0.848676 0.00108002
-4.03987 92.3879 1.87395 0.455608 -0.889933 0.0210156
-5.034 91.9519 1.85647 0.336997 -0.941028 0.0299935
-6.14283 91.6388 1.84191 0.187527 -0.981991 0.0229732
-7.24921 91.5435 1.84261 -0.0106616 -0.99881 0.047587
-8.26745 91.5892 1.8409 -0.0892072 -0.996003 -0.00439309
-9.3229 91.7783 1.83586 -0.251327 -0.9679 0.00211804
-10.2794 92.0933 1.8418 -0.383539 -0.923459 -0.0109806
-11.2264 92.5275 1.8462 -0.45519 -0.889866 0.0306754
-12.1467 93.0167 1.85082 -0.500862 -0.864863 0.0339136
-12.9113 93.4846 1.85502 -0.536481 -0.843714 0.0182991
-12.912 93.5034 2.78472 -0.539565 -0.841628 0.0230774
-11.9662 92.9412 2.77766 -0.470677 -0.882136 0.0173023
-10.9194 92.4097 2.76828 -0.437376 -0.898519 0.0369573
-9.90954 91.9665 2.76677 -0.346309 -0.938011 0.0143313
-8.72888 91.6688 2.76408 -0.199845 -0.979827 -0.000681092
-7.70987 91.5599 2.76374 -0.0256645 -0.99967 -0.00136691
-6.59814 91.5959 2.76549 0.125064 -0.992123 0.0070649
-5.40627 91.8282 2.78231 0.295504 -0.955341 -0.000420855
-4.44066 92.2126 2.80453 0.419516 -0.907737 0.00449738
-3.51864 92.6747 2.82237 0.482786 -0.874398 0.0484349
-2.56149 93.3015 2.85048 0.587226 -0.809084 0.0234222
-2.31741 93.4808 2.85348 0.592582 -0.804775 0.0344157
-2.34047 93.4936 3.80278 0.599359 -0.80035 0.0144497
-3.30747 92.8111 3.76815 0.521148 -0.853096 0.0251357
-4.24482 92.3188 3.74182 0.437339 -0.899002 0.0230226
-5.18934 91.9101 3.7163 0.329687 -0.944072 -0.00594641
-6.20322 91.6517 3.69711 0.157296 -0.987247 0.0245191
-7.33141 91.5466 3.67836 0.0193766 -0.999752 -0.0109726
-8.38503 91.6228 3.67705 -0.137296 -0.990425 -0.0143994
-9.46043 91.8407 3.67885 -0.293875 -0.955699 0.0166107
-10.4764 92.2292 3.68589 -0.407033 -0.912987 0.0279133
-11.4595 92.704 3.69594 -0.453638 -0.890993 0.0185327
-12.3735 93.1838 3.70869 -0.479567 -0.877503 -0.00196625
-12.948 93.5378 3.71515 -0.536404 -0.843961 0.000677331
-12.9345 93.5196 4.65183 -0.546476 -0.837324 -0.015884
-12.07 93.0046 4.63317 -0.46892 -0.883122 -0.0145091
-11.1002 92.5329 4.61029 -0.419246 -0.907863 0.00426734
-10.172 92.1272 4.59441 -0.382207 -0.923829 0.0214235
-9.20728 91.7806 4.58263 -0.270638 -0.962657 -0.00682683
-8.07653 91.593 4.5783 -0.0776898 -0.996745 0.0215106
-7.03617 91.5715 4.58585 0.105398 -0.994141 0.0239745
-5.98115 91.7224 4.60699 0.188384 -0.982058 0.00860453
-4.88855 92.0358 4.64467 0.384541 -0.922891 0.0199909
-3.87292 92.5222 4.68787 0.456524 -0.889544 0.0172264
-3.00653 93.0304 4.72623 0.555764 -0.831279 0.0101123
-2.35914 93.4881 4.75169 0.587457 -0.80924 -0.00502746
-3.62544 92.6603 5.64515 0.510014 -0.860059 -0.0136075
-4.54342 92.1961 5.58295 0.414072 -0.910232 -0.00468232
-5.52789 91.8178 5.52447 0.239035 -0.970448 -0.0330463
-6.56656 91.6242 5.48934 0.126212 -0.9919 0.0142944
-7.61316 91.5638 5.47015 -0.0390187 -0.998195 0.0456536
-8.70948 91.685 5.46855 -0.163662 -0.985653 0.0412589
-9.86419 92.0197 5.48961 -0.348355 -0.937215 0.0166137
-10.905 92.4501 5.51885 -0.396701 -0.917947 0.00083143
-11.8829 92.8898 5.55519 -0.439573 -0.898063 -0.0160656
-12.7753 93.4052 5.5918 -0.532173 -0.846526 -0.0136026
-12.9119 93.4756 -1.86924 -0.532764 -0.846217 -0.008919
-11.9678 92.9107 -1.86538 -0.497098 -0.86763 -0.0105612
-11.0869 92.4346 -1.85597 -0.439418 -0.898267 -0.00530773
-10.1189 92.0291 -1.84906 -0.328546 -0.944315 0.0180739
-9.07353 91.705 -1.84717 -0.243018 -0.969488 0.0321699
-8.07735 91.5479 -1.848 -0.0817059 -0.996553 0.0143708
-6.95715 91.5262 -1.85603 0.134781 -0.990716 -0.0177538
-5.83573 91.7527 -1.86064 0.252262 -0.96759 -0.0115455
-4.74912 92.0775 -1.86978 0.36436 -0.931235 -0.00660107
-3.71163 92.5583 -1.88182 0.470578 -0.882326 0.00761332
-2.77261 93.1487 -1.89027 0.592455 -0.805565 -0.00792087
-2.32574 93.4821 -1.8934 0.605267 -0.795973 0.00890361
-2.3405 93.4776 -2.84416 0.602359 -0.798031 -0.0176286
-3.17961 92.8693 -2.83105 0.562645 -0.826522 -0.0170893
-4.18098 92.3331 -2.81002 0.407586 -0.913036 -0.0154462
-5.21741 91.9147 -2.79127 0.3084 -0.950977 -0.023071
-6.26735 91.6476 -2.77935 0.174702 -0.984491 0.0160044
-7.28688 91.5262 -2.76885 0.0351745 -0.999345 0.00852662
-8.31425 91.5676 -2.75899 -0.118283 -0.992771 0.0203687
-9.34926 91.7706 -2.76543 -0.26444 -0.96437 -0.00789614
-10.3945 92.1262 -2.77401 -0.347909 -0.937521 -0.00369968
-11.4411 92.6203 -2.78299 -0.481062 -0.87656 -0.014933
-12.4201 93.1757 -2.79622 -0.503305 -0.864031 0.0116189
-12.9703 93.5055 -2.80071 -0.518179 -0.855261 0.0043628
-12.8203 93.4024 -3.73303 -0.534586 -0.845057 0.00983311
-11.9187 92.8792 -3.71571 -0.485633 -0.874161 0.00159908
-10.9692 92.3794 -3.69752 -0.445166 -0.895295 -0.0165716
-10.0213 92.0006 -3.68914 -0.311084 -0.950368 -0.00520364
-8.92525 91.6802 -3.68504 -0.217675 -0.976019 0.00193384
-7.86654 91.5271 -3.68349 -0.0171642 -0.999826 0.00733001
-6.82975 91.5859 -3.68914 0.119542 -0.991457 -0.0521779
-5.72007 91.785 -3.70363 0.286594 -0.95805 -0.00219785
-4.56348 92.195 -3.73251 0.384 -0.922139 -0.0469334
-3.62522 92.642 -3.76632 0.468882 -0.883195 -0.0107847
-2.77237 93.1838 -3.78906 0.584099 -0.811448 -0.01948
-2.37548 93.4739 -3.7977 0.594769 -0.803535 -0.0241171
-2.39674 93.4856 -4.7631 0.58963 -0.807639 -0.00748025
-3.36999 92.8159 -4.72304 0.548855 -0.83583 -0.012107
-4.25319 92.3431 -4.68088 0.418848 -0.908056 0.00051839
-5.27733 91.9274 -4.62848 0.334925 -0.941969 -0.0228106
-6.34435 91.6664 -4.59478 0.192616 -0.981127 -0.016986
-7.36455 91.5519 -4.58165 0.0458653 -0.998769 -0.0188744
-8.42955 91.5917 -4.58101 -0.13139 -0.990757 -0.033725
-9.45651 91.8338 -4.58966 -0.278324 -0.960481 0.003307
-10.4069 92.1649 -4.60309 -0.359534 -0.932756 -0.0264955
-11.3829 92.6039 -4.62559 -0.437812 -0.898871 -0.0187501
-12.3208 93.1023 -4.65255 -0.5074 -0.861698 0.00469726
-12.8275 93.405 -4.66432 -0.519393 -0.854513 0.00619814
-12.7368 93.3481 -5.60381 -0.529607 -0.848243 0.000849505
-11.8011 92.8192 -5.56485 -0.450104 -0.892814 -0.017003
-10.8636 92.3701 -5.52801 -0.417717 -0.908548 0.00727002
-9.92637 91.9954 -5.49951 -0.319311 -0.947221 -0.0285227
-8.9396 91.7142 -5.48009 -0.21262 -0.977059 -0.0122098
-7.90601 91.5773 -5.475 -0.066369 -0.996147 -0.0573312
-6.73168 91.6094 -5.48701 0.137959 -0.990077 -0.026732
-5.74914 91.803 -5.52224 0.244395 -0.969594 0.0125632
-4.7834 92.1055 -5.5819 0.358699 -0.933397 0.0102523
-3.78109 92.5672 -5.6418 0.504489 -0.863238 -0.0176467
-3.72375 92.6008 -5.64565 0.504494 -0.863235 -0.0176607
-3.63806 92.651 -5.65124 0.49712 -0.867666 0.00526166
