-11.736 94.0846 -3.0443 -0.498219 -0.867043 0.00373797
-11.7177 94.0716 -4.07174 -0.493144 -0.869921 0.00245249
-11.7221 94.0629 -5.22517 -0.481213 -0.876288 0.0235506
-11.2778 93.8418 -6.04009 -0.432007 -0.901858 0.00465978
-10.3414 93.4231 -6.01939 -0.381127 -0.924473 0.00959517
-9.32932 93.0899 -6.05558 -0.243992 -0.96933 -0.0088171
-8.26103 92.903 -6.04396 -0.0868348 -0.995935 -0.0239314
-7.20454 92.8616 -6.00937 0.0756657 -0.99607 -0.0460279
-6.19129 92.9982 -6.05033 0.191694 -0.981432 -0.00672511
-5.09558 93.2928 -6.03704 0.317897 -0.948071 0.0084002
-4.1092 93.7175 -6.03597 0.46056 -0.887502 0.0150182
-3.56081 94.0466 -5.37267 0.543952 -0.838973 -0.000273366
-3.52906 94.0518 -4.34298 0.512871 -0.857878 -0.0292591
-3.50461 94.0381 -3.30254 0.511036 -0.859353 -0.0183843
-3.48023 94.0437 -2.25775 0.522145 -0.852553 -0.0178495
-3.49288 94.0171 -1.10321 0.515931 -0.856104 0.0184141
-3.4619 94.0483 -0.0791451 0.530188 -0.84756 0.0230985
-3.42488 94.0934 1.0066 0.517858 -0.855248 0.00403739
-3.42078 94.0697 2.02043 0.545422 -0.837742 -0.0265023
-3.46386 94.036 3.06234 0.452021 -0.891826 0.0179158
-3.45372 94.0519 4.06909 0.515038 -0.856321 -0.013239
-3.47238 94.0526 5.2412 0.521942 -0.851941 0.0288706
-3.88112 93.8282 6.0637 0.518993 -0.853557 0.0412423
-4.82777 93.3891 6.05959 0.37899 -0.925182 0.0201406
-5.82046 93.039 6.03699 0.237899 -0.971111 -0.0186273
-6.81016 92.8931 6.06243 0.0834366 -0.996507 -0.00311773
-7.86536 92.8808 6.03044 -0.0550264 -0.997511 0.0440483
-8.87598 93.0206 6.04143 -0.240215 -0.967813 0.0750668
-9.94581 93.3855 6.05561 -0.357616 -0.933693 0.0181318
-10.9998 93.8058 6.01797 -0.385803 -0.922573 0.00386051
-11.6414 94.0978 5.52135 -0.442434 -0.896779 0.00035415
-11.6516 94.1094 4.48416 -0.458408 -0.888591 -0.0163754
-11.6595 94.1005 3.35794 -0.474302 -0.879785 0.0318703
-11.6928 94.0886 2.33904 -0.478205 -0.877817 0.0275146
-11.698 94.0577 1.25514 -0.505228 -0.86296 0.00643229
-11.7176 94.0622 0.119958 -0.510228 -0.860036 0.0022948
-11.7133 94.0619 -0.992491 -0.512716 -0.858526 -0.00750303
-11.7167 94.0727 -2.02926 -0.500997 -0.865427 -0.0060777
-11.7358 94.0847 -2.99547 -0.498538 -0.866861 0.00345217
-12.5725 94.5782 -3.00565 -0.523518 -0.852015 -0.000188476
-12.5786 94.5735 -4.14181 -0.523372 -0.852021 0.00861735
-12.5835 94.576 -5.15864 -0.532457 -0.846456 0.00153875
-12.5806 94.5692 -6.19785 -0.530181 -0.847855 0.0070679
-12.2911 94.3939 -7.00233 -0.495266 -0.86874 -0.00109909
-11.3144 93.8632 -7.04934 -0.46795 -0.883592 -0.017
-10.2574 93.3889 -6.99705 -0.341828 -0.939171 -0.0137045
-9.26988 93.0821 -7.04573 -0.241456 -0.969995 -0.0200853
-8.20642 92.901 -7.02141 -0.0624185 -0.997606 -0.029772
-7.08314 92.886 -6.9992 0.0433411 -0.999059 -0.00179124
-6.05546 93.0443 -7.03645 0.226193 -0.973277 -0.0350224
-5.05452 93.3094 -7.02553 0.35065 -0.936463 -0.000180298
-3.98813 93.7963 -7.02034 0.481574 -0.875927 -0.0261712
-3.11143 94.3311 -7.02775 0.580329 -0.814261 0.014042
-2.73467 94.6191 -6.28648 0.588055 -0.80858 0.0197591
-2.7614 94.6107 -5.20723 0.587392 -0.809194 -0.0131467
-2.72815 94.6111 -4.08021 0.596 -0.802889 -0.0123498
-2.71442 94.597 -3.05254 0.616818 -0.786892 -0.0183679
-2.67271 94.6014 -1.85721 0.623867 -0.781436 -0.0121179
-2.69487 94.5797 -0.808258 0.631031 -0.775353 0.000458559
-2.62778 94.6128 0.241881 0.596728 -0.802349 -0.0123129
-2.60953 94.6267 1.32337 0.559805 -0.828412 -0.0121668
-2.61134 94.5953 2.34508 0.582945 -0.812291 -0.00370944
-2.63713 94.5873 3.37101 0.575048 -0.817993 0.000561742
-2.63698 94.6013 4.37123 0.59429 -0.804124 0.0143058
-2.64603 94.6281 5.44482 0.582136 -0.812471 0.0317675
-2.69378 94.6245 6.50686 0.577397 -0.816299 0.0144068
-3.2354 94.2664 7.03091 0.555378 -0.831528 0.0107524
-4.10845 93.7372 7.04788 0.444475 -0.894009 0.00757066
-5.15656 93.2977 7.03409 0.365414 -0.929672 0.0467148
-6.17264 92.9834 7.04503 0.18301 -0.982653 0.0300022
-7.17835 92.9051 7.02977 -0.00924076 -0.998385 0.0558241
-8.3171 92.9556 7.03204 -0.107992 -0.992875 0.0451601
-9.41879 93.215 7.04661 -0.316655 -0.948347 0.0171728
-10.4153 93.5749 7.04456 -0.342662 -0.939396 0.0108251
-11.3705 93.9825 7.0223 -0.43204 -0.901852 -0.00222054
-12.3464 94.4895 6.99804 -0.506822 -0.862009 0.00713342
-12.5056 94.5852 6.08856 -0.52824 -0.849075 -0.00587099
-12.4973 94.5843 5.02136 -0.508086 -0.861304 0.00203944
-12.497 94.5858 3.80538 -0.523866 -0.851794 -0.00275324
-12.5166 94.5853 2.73433 -0.527112 -0.849516 0.0186688
-12.5262 94.5704 1.73242 -0.539081 -0.842106 0.0157484
-12.5524 94.5685 0.550715 -0.518646 -0.854971 0.00547644
-12.5803 94.5838 -0.513454 -0.529111 -0.848539 -0.00475118
-12.5423 94.5651 -1.53026 -0.535374 -0.844609 -0.00311469
-12.5702 94.5777 -2.60324 -0.518024 -0.855331 0.00767543
-12.5723 94.5781 -2.85915 -0.523505 -0.852022 -0.000190231
-11.2107 93.7912 -2.75294 -0.479182 -0.877639 0.0115769
-10.1175 93.2983 -2.74581 -0.344598 -0.938543 -0.0197396
-9.0356 92.9737 -2.74062 -0.207207 -0.978174 -0.0155064
-8.04544 92.8025 -2.74417 -0.0971381 -0.995228 0.0092894
-6.98531 92.808 -2.74723 0.127701 -0.991733 0.0126127
-5.97421 92.9897 -2.75255 0.258366 -0.965453 -0.0338789
-4.95739 93.327 -2.76416 0.394049 -0.918253 -0.0392088
-4.0353 93.7331 -2.77137 0.444248 -0.895614 -0.022783
-3.94397 93.8006 -3.69603 0.442233 -0.896836 0.0107632
-4.91697 93.3773 -3.68234 0.373518 -0.927622 0.00137661
-5.99045 93.0053 -3.66984 0.271554 -0.962383 -0.00882183
-7.0937 92.8125 -3.66055 0.0541528 -0.998428 -0.0144632
-8.16151 92.8289 -3.65372 -0.132301 -0.990785 -0.0290243
-9.17026 93.0157 -3.65738 -0.244549 -0.968719 -0.0421873
-10.1416 93.312 -3.66269 -0.35664 -0.934178 -0.0109491
-11.0617 93.7155 -3.66928 -0.467791 -0.883518 -0.023824
-11.1813 93.7788 -3.67062 -0.46778 -0.883524 -0.0238148
-11.2757 93.8302 -4.58641 -0.427948 -0.903533 -0.0221096
-10.2627 93.3779 -4.57535 -0.392895 -0.919303 -0.0227191
-9.24826 93.0536 -4.5642 -0.205297 -0.978013 -0.0366604
-8.25963 92.8828 -4.5608 -0.142834 -0.989002 -0.0383878
-7.10275 92.8297 -4.56448 0.052602 -0.998285 -0.0256752
-6.07875 93.0028 -4.57644 0.253665 -0.967135 -0.0174246
-4.99714 93.3364 -4.59747 0.375379 -0.926775 0.0133375
-4.11357 93.7183 -4.61637 0.484252 -0.874234 -0.0348491
-4.37026 93.593 -5.53398 0.423621 -0.905838 -0.0016248
-5.31493 93.2156 -5.50149 0.314966 -0.948967 0.0160534
-6.29027 92.973 -5.47329 0.184236 -0.982812 -0.0116983
-7.31075 92.8295 -5.45531 0.115861 -0.993187 -0.0124824
-8.35289 92.9101 -5.453 -0.150859 -0.988555 0.000576475
-9.34146 93.0895 -5.46556 -0.249469 -0.968375 -0.00379972
-10.3776 93.4421 -5.48327 -0.387638 -0.921806 0.0031342
-11.0059 93.7175 -5.49884 -0.417866 -0.90841 0.0133768
-11.252 93.8088 -1.8342 -0.480071 -0.877222 -0.00364245
-10.3271 93.3738 -1.83104 -0.355791 -0.934487 0.0121206
-9.30792 93.0435 -1.82912 -0.264954 -0.963811 0.0294484
-8.32704 92.8412 -1.82822 -0.153621 -0.987524 0.0346013
-7.29271 92.7869 -1.82977 0.0162805 -0.999828 0.00884211
-6.26762 92.9094 -1.83384 0.171226 -0.985221 0.00464395
-5.24503 93.1814 -1.83956 0.311666 -0.950191 -0.000714486
-4.15032 93.6649 -1.84566 0.427193 -0.904155 -0.00299792
-3.9211 93.7804 -1.84647 0.45973 -0.887662 0.0265516
-3.92099 93.7669 -0.91928 0.486023 -0.873928 -0.00558492
-4.83062 93.3293 -0.918636 0.360926 -0.93223 -0.0260734
-5.80247 93.0137 -0.91691 0.256401 -0.966318 0.0221077
-6.78609 92.8421 -0.909849 0.0741931 -0.997213 0.00784835
-7.84416 92.8294 -0.915158 -0.0627803 -0.997955 0.0120113
-8.88147 92.9507 -0.914032 -0.233845 -0.971712 0.033051
-9.9392 93.2331 -0.916549 -0.267943 -0.963421 0.00522657
-10.913 93.6193 -0.918271 -0.442323 -0.896634 0.0199701
-11.2954 93.8191 -0.919578 -0.484161 -0.874971 0.00374929
-11.2416 93.7917 -0.00676001 -0.468534 -0.883352 -0.0128434
-10.19 93.3241 -0.00557568 -0.314202 -0.949222 0.0159689
-9.12591 93.0341 -0.00162936 -0.236497 -0.971553 0.0124346
-8.06098 92.8296 0.000118675 -0.0782562 -0.995828 -0.0469344
-7.03831 92.8175 -0.000467887 0.110179 -0.993839 0.0120334
-6.03154 92.9894 0.00566447 0.233066 -0.97203 0.0289493
-4.99191 93.2768 0.0077336 0.326016 -0.945284 0.0123284
-4.00066 93.7293 0.00869999 0.459951 -0.887876 0.0110274
-3.86078 93.8212 0.938154 0.532164 -0.846619 -0.00618418
-4.83337 93.3592 0.926747 0.342119 -0.939155 0.0306827
-5.8387 93.0545 0.921438 0.234204 -0.972171 0.00561361
-6.90632 92.8262 0.917108 0.160134 -0.986951 -0.016854
-7.90971 92.7967 0.913879 -0.087495 -0.995404 -0.0389333
-9.09194 93.0215 0.913608 -0.225975 -0.974132 0.00122367
-10.1151 93.3138 0.912707 -0.313019 -0.949731 -0.00546638
-11.1011 93.7266 0.909675 -0.455592 -0.8885 0.0548002
-11.2498 93.8028 0.908584 -0.47027 -0.881704 0.0379947
-11.2508 93.835 1.82391 -0.450082 -0.892605 0.0261278
-10.3298 93.4148 1.82575 -0.369796 -0.928765 0.0254102
-9.34982 93.1041 1.82407 -0.245493 -0.969393 0.00310536
-8.25576 92.8591 1.83185 -0.172485 -0.984857 0.0174735
-7.18662 92.7906 1.83621 0.0453211 -0.998731 0.0219424
-6.05063 92.9853 1.83643 0.243012 -0.969313 -0.0371218
-5.08115 93.2688 1.84294 0.347491 -0.936705 0.042832
-4.13788 93.6767 1.84903 0.450647 -0.89214 0.031687
-3.91221 93.7936 1.85032 0.484451 -0.874816 0.00189224
-3.96719 93.7774 2.77023 0.442397 -0.896388 0.0278132
-4.96939 93.3275 2.76122 0.392519 -0.919677 0.0110638
-5.97888 92.9876 2.75206 0.248684 -0.968585 0.000690584
-7.0199 92.8015 2.74407 0.0218499 -0.997827 0.0621672
-8.06606 92.8665 2.74073 -0.168517 -0.985314 0.027543
-9.16231 93.0635 2.74486 -0.186114 -0.982524 -0.00279781
-10.1482 93.3531 2.7403 -0.384747 -0.922974 0.00943504
-11.2244 93.8513 2.73973 -0.456916 -0.889111 0.0266315
-11.1743 93.854 3.6541 -0.461259 -0.88704 0.02002
-10.18 93.3838 3.65255 -0.379161 -0.922962 0.0661706
-9.22116 93.0683 3.64734 -0.234282 -0.970794 0.0516739
-8.17707 92.881 3.64604 -0.137747 -0.990467 -0.00018901
-7.05961 92.8003 3.65191 0.0328995 -0.999457 -0.00157025
-6.0621 92.9578 3.66132 0.219513 -0.975511 0.0138638
-5.03214 93.3025 3.6751 0.401039 -0.91606 -0.00160722
-4.06073 93.7429 3.68634 0.426531 -0.904469 -0.00278504
-3.9503 93.795 3.68722 0.427786 -0.903868 -0.00469382
-3.92822 93.7986 4.61154 0.471075 -0.882088 0.00313285
-4.88522 93.3602 4.59312 0.390464 -0.920562 -0.0102019
-5.91011 93.0097 4.57207 0.238694 -0.970843 0.0221173
-7.01056 92.8391 4.56282 0.101719 -0.994562 0.022338
-8.06491 92.8632 4.5588 -0.0991408 -0.995051 -0.0066601
-9.07663 93.0384 4.55633 -0.268924 -0.963158 0.00244717
-10.0384 93.3775 4.56063 -0.349364 -0.935444 0.0537627
-10.9803 93.7802 4.56815 -0.416149 -0.909051 0.0211377
-11.1821 93.8761 4.56963 -0.434932 -0.900426 0.00815222
-10.9977 93.8018 5.48201 -0.387939 -0.921674 0.0045604
-9.93935 93.3707 5.4651 -0.371336 -0.928338 0.0172695
-8.84632 92.9956 5.45611 -0.242293 -0.970203 -0.000734185
-7.74147 92.8593 5.4519 -0.0534685 -0.998374 0.0197565
-6.70951 92.8945 5.46801 0.0839719 -0.996358 0.0148426
-5.70361 93.066 5.48833 0.271971 -0.962087 0.0205157
-4.74473 93.4105 5.51651 0.361887 -0.93215 0.0116046
-4.23695 93.6393 5.53083 0.443723 -0.89615 0.0049888
-4.21286 93.6523 5.5316 0.473451 -0.880772 0.00922435
