-0.347212 23.1236 -5.67022 -0.213271 -0.976936 0.0105693
0.301589 22.9639 -6.13334 -0.247805 -0.968809 -0.00169126
1.34147 22.6794 -6.12009 -0.300047 -0.953924 -6.54371e-05
2.32097 22.3608 -6.14384 -0.323396 -0.946251 -0.00501285
3.2934 22.0142 -6.12436 -0.347581 -0.937599 0.00333648
4.24144 21.6351 -6.13387 -0.378838 -0.925458 0.00294481
5.29511 21.1838 -6.09761 -0.407412 -0.913242 0.00204338
6.21289 20.7629 -6.09689 -0.420314 -0.907377 0.00151326
7.12415 20.3398 -6.10156 -0.425047 -0.905172 -7.27602e-05
8.03315 19.9033 -6.11509 -0.438607 -0.898678 0.000945473
8.9979 19.4301 -6.11859 -0.441878 -0.897074 0.00116093
9.98376 18.9334 -6.11083 -0.452218 -0.891906 -0.00162074
10.8995 18.4701 -6.10073 -0.450396 -0.892825 -0.00251088
11.8783 17.9703 -6.08005 -0.458917 -0.888477 -0.00163329
12.2896 17.7554 -5.32467 -0.463176 -0.886266 -0.00081871
12.3116 17.745 -4.27234 -0.46119 -0.887301 0.000808029
12.2693 17.7649 -3.22725 -0.456985 -0.889471 -0.00249638
12.2815 17.757 -2.09816 -0.455999 -0.889978 -0.00209277
12.2788 17.7573 -1.02821 -0.455591 -0.890185 0.00262422
12.2866 17.7565 0.0489026 -0.456877 -0.889496 0.00773056
12.2973 17.755 1.06056 -0.460452 -0.887684 0.000215589
12.2626 17.7765 2.07846 -0.460733 -0.887531 0.00376079
12.2566 17.78 3.14545 -0.458552 -0.888651 -0.00540074
12.2823 17.7625 4.19942 -0.454005 -0.890999 -0.000249837
12.2916 17.7584 5.21713 -0.461233 -0.887278 0.000519186
12.0437 17.8892 6.09377 -0.463831 -0.885923 0.000929743
11.1056 18.3786 6.12652 -0.456402 -0.889769 -0.00300191
10.1319 18.8761 6.11122 -0.453432 -0.891286 -0.00273706
9.19745 19.3503 6.10097 -0.448784 -0.893636 -0.00218776
8.30143 19.7944 6.12823 -0.438233 -0.898856 -0.0027155
7.35121 20.2507 6.09725 -0.42642 -0.904524 -0.00138175
6.38279 20.698 6.12144 -0.41691 -0.908944 0.00251345
5.32529 21.1772 6.11798 -0.405151 -0.914231 0.00589028
4.3491 21.5969 6.1202 -0.38532 -0.922735 0.00934939
3.35558 21.9973 6.093 -0.360344 -0.932791 0.00245672
2.27071 22.3866 6.07728 -0.323356 -0.946222 0.00859178
1.16327 22.7427 6.08472 -0.286091 -0.958153 0.0041938
0.12221 23.0214 6.09628 -0.23462 -0.972076 0.00471068
-0.239361 23.1073 5.32486 -0.227669 -0.97372 -0.00533381
-0.222581 23.1111 4.29653 -0.231704 -0.972726 -0.00466466
-0.255342 23.126 3.28987 -0.243406 -0.969848 -0.012172
-0.200794 23.1191 2.12522 -0.229301 -0.973257 0.000269818
-0.17984 23.1158 1.07602 -0.240227 -0.970707 -0.00427802
-0.177526 23.1161 0.0265602 -0.234549 -0.972079 -0.00114118
-0.240857 23.121 -1.0918 -0.218076 -0.975924 0.000627893
-0.29167 23.1306 -2.09531 -0.215651 -0.976461 0.00119841
-0.253217 23.1201 -3.12117 -0.215649 -0.976384 0.0130349
-0.244282 23.1095 -4.17496 -0.218334 -0.975862 -0.000827597
-0.322872 23.1226 -5.19257 -0.221574 -0.975105 0.00871581
-0.344914 23.1235 -5.62968 -0.213271 -0.976936 0.0105693
-1.31633 23.3182 -5.5962 -0.16605 -0.986098 0.00623185
-1.28194 23.3072 -6.64117 -0.170365 -0.985381 -0.00054743
-0.441645 23.136 -7.09171 -0.207627 -0.978076 0.013619
0.696453 22.8646 -7.07611 -0.247061 -0.968964 0.00367514
1.71828 22.5596 -7.0739 -0.304027 -0.952634 9.14382e-05
2.84147 22.1767 -7.07588 -0.334268 -0.942424 0.0100906
3.85048 21.7966 -7.07777 -0.381777 -0.924248 0.00338095
4.78052 21.4068 -7.0776 -0.398915 -0.916984 0.00261993
5.81466 20.9474 -7.06789 -0.41944 -0.907776 -0.00317308
6.78706 20.4944 -7.065 -0.42409 -0.905616 -0.00248144
7.69346 20.0666 -7.0569 -0.432752 -0.901512 -0.000482251
8.6966 19.5768 -7.06123 -0.441336 -0.897342 0.000650276
9.67987 19.089 -7.05278 -0.449526 -0.893265 -0.00175961
10.6361 18.6074 -7.0538 -0.449193 -0.893421 -0.00493567
11.5363 18.1506 -7.03196 -0.457087 -0.889415 -0.00354814
12.4332 17.6894 -7.05159 -0.454319 -0.890835 -0.00252626
13.1192 17.341 -6.64141 -0.449297 -0.893379 0.00242865
13.13 17.3329 -5.59803 -0.442008 -0.896998 -0.00480889
13.1458 17.3185 -4.58547 -0.445014 -0.895494 -0.007327
13.1476 17.315 -3.47468 -0.453921 -0.891041 -0.000939141
13.1313 17.3228 -2.40644 -0.455107 -0.890436 0.000877503
13.125 17.3257 -1.20199 -0.45121 -0.892416 -0.00186763
13.1324 17.3221 -0.176353 -0.452671 -0.891668 0.00417086
13.1418 17.3205 0.840105 -0.455295 -0.890339 0.00179011
13.128 17.329 1.91111 -0.455829 -0.890067 0.000895443
13.1176 17.3371 3.00413 -0.457443 -0.889238 0.00101737
13.1478 17.3202 4.17617 -0.453627 -0.89119 -0.00139707
13.1426 17.3227 5.22549 -0.451629 -0.892202 -0.00119247
13.1301 17.3258 6.40627 -0.45224 -0.891882 -0.00509223
12.719 17.5388 7.07878 -0.461205 -0.887272 0.00623868
11.8225 18.0068 7.07099 -0.461092 -0.887352 0.000951956
10.8449 18.51 7.06503 -0.454864 -0.890559 -0.0019562
9.92647 18.9793 7.07958 -0.453896 -0.891054 -0.00103918
9.01845 19.4388 7.06092 -0.446376 -0.894845 -0.00129972
8.08539 19.8987 7.08404 -0.435921 -0.899984 0.00109191
7.13124 20.3529 7.06344 -0.420013 -0.907513 -0.00293768
6.12722 20.8158 7.07365 -0.414361 -0.910108 -0.00300748
5.16551 21.247 7.05993 -0.406063 -0.913841 -0.00215298
4.2427 21.6492 7.06581 -0.393731 -0.919224 -0.00162308
3.29164 22.0231 7.03956 -0.345976 -0.938223 -0.00307676
2.34185 22.3645 7.03626 -0.32984 -0.944028 -0.00405084
1.28803 22.7054 7.03601 -0.287248 -0.95783 0.00702379
0.310599 22.9825 7.06419 -0.25274 -0.967403 0.00108245
-0.664241 23.2064 7.04231 -0.208349 -0.978039 -0.00558181
-1.16501 23.3097 6.32125 -0.203513 -0.979054 0.00595337
-1.16597 23.3107 5.20656 -0.204098 -0.978935 -0.00326318
-1.1493 23.3139 3.93644 -0.190353 -0.981703 -0.00502168
-1.16433 23.3238 2.86992 -0.185604 -0.98259 -0.00826516
-1.1265 23.3215 1.86395 -0.200403 -0.979673 -0.00846632
-1.1191 23.3196 0.828575 -0.197274 -0.980263 0.0118562
-1.1435 23.3186 -0.186342 -0.191274 -0.981504 0.00609922
-1.18947 23.3188 -1.28612 -0.188284 -0.98208 0.00826011
-1.20926 23.3179 -2.354 -0.186948 -0.982347 0.00455529
-1.17414 23.3072 -3.4264 -0.19557 -0.980667 0.00671379
-1.21656 23.3103 -4.57508 -0.180923 -0.983492 0.00319362
-1.29443 23.3157 -5.39763 -0.168143 -0.985695 0.0104976
0.281045 22.9712 -5.43945 -0.24436 -0.96964 0.00928742
1.29392 22.6919 -5.45756 -0.288757 -0.957347 0.0103187
2.3376 22.353 -5.48088 -0.3227 -0.946497 0.00286608
3.28006 22.0181 -5.50516 -0.34154 -0.939867 0.000299273
4.23041 21.6413 -5.53415 -0.376583 -0.926377 0.00319248
5.20284 21.2276 -5.56233 -0.412315 -0.910953 0.0126506
6.20671 20.7672 -5.58862 -0.421307 -0.906914 0.00264261
7.11555 20.3438 -5.61074 -0.428676 -0.903454 0.00266529
7.64648 20.0917 -5.6238 -0.433903 -0.900959 0.000541686
8.66345 19.5956 -5.64329 -0.440968 -0.897519 0.00250737
8.9155 19.4713 -5.6478 -0.442114 -0.896957 0.00201822
8.99646 19.4314 -5.64926 -0.444241 -0.895907 0.00101478
11.7832 18.0182 -4.73655 -0.458952 -0.888459 -0.00193916
10.8519 18.4931 -4.72851 -0.450865 -0.892592 -0.000208775
9.84993 19.0003 -4.71658 -0.453154 -0.891432 -0.000828838
8.88123 19.4879 -4.70372 -0.444343 -0.895855 -0.00139732
7.87902 19.9781 -4.68783 -0.437369 -0.899282 -0.00110884
6.87552 20.4594 -4.66808 -0.424473 -0.90544 0.000553549
5.9601 20.8829 -4.64796 -0.418112 -0.908395 0.00122526
4.92059 21.3522 -4.62746 -0.399608 -0.916681 -0.00321572
3.981 21.7462 -4.6066 -0.372085 -0.928196 0.00216835
3.0244 22.117 -4.58689 -0.340751 -0.94015 0.00265481
2.02389 22.4619 -4.56593 -0.321346 -0.94692 0.00886778
0.895246 22.8124 -4.54899 -0.278268 -0.960469 0.00813926
0.369 22.9581 -4.54215 -0.255726 -0.966576 0.0183145
0.316889 22.9798 -3.64005 -0.24955 -0.968252 0.0145746
1.34356 22.6878 -3.65045 -0.292002 -0.956417 0.00137013
2.30288 22.3703 -3.66136 -0.330211 -0.943907 0.000132
3.31386 22.0112 -3.67592 -0.351301 -0.936262 -0.00123552
4.38132 21.5837 -3.69346 -0.381891 -0.924191 0.00546658
5.35215 21.1643 -3.70828 -0.413325 -0.910578 0.00301186
6.3898 20.6886 -3.72673 -0.417933 -0.908467 0.00442273
7.43972 20.1935 -3.74168 -0.430945 -0.902378 0.00103251
8.35099 19.7475 -3.75513 -0.440729 -0.897639 0.00108935
9.31358 19.2719 -3.76646 -0.447596 -0.894236 0.000556644
10.2196 18.8153 -3.77599 -0.451325 -0.892353 0.00341128
11.1931 18.3188 -3.78415 -0.455522 -0.890224 0.000166923
11.8566 17.979 -3.78747 -0.456781 -0.889565 -0.00500063
11.7936 18.0082 -2.8396 -0.457326 -0.889295 -0.0027866
10.8796 18.4792 -2.83435 -0.457757 -0.889071 -0.00332739
9.94079 18.9594 -2.829 -0.451745 -0.892145 0.00200555
9.02714 19.4163 -2.82185 -0.443793 -0.896125 0.0025814
8.08035 19.8828 -2.81356 -0.440903 -0.897551 0.00266084
7.13519 20.34 -2.80266 -0.43083 -0.902431 0.00213312
6.22878 20.7662 -2.79283 -0.423028 -0.906116 0.00123569
5.28011 21.2001 -2.78078 -0.404734 -0.914431 -0.00246521
4.35224 21.5997 -2.77085 -0.388965 -0.921241 0.00452275
3.38378 21.9846 -2.76052 -0.348818 -0.937118 0.0116506
2.28404 22.3798 -2.75022 -0.327783 -0.944731 0.00648648
1.16055 22.7502 -2.73998 -0.286109 -0.958173 0.0067631
0.338969 22.9797 -2.73483 -0.238569 -0.971066 0.0107603
0.287227 22.9975 -1.8293 -0.23856 -0.971109 -0.00607782
1.25854 22.7251 -1.83175 -0.293249 -0.956002 -0.00811017
2.30564 22.3754 -1.83691 -0.327303 -0.944902 0.00566287
3.26238 22.0361 -1.84222 -0.344998 -0.938593 0.00439195
4.21792 21.6559 -1.84782 -0.393434 -0.919351 -0.00168542
5.24003 21.2171 -1.85487 -0.398722 -0.917072 -0.000703765
6.28873 20.7402 -1.86302 -0.423485 -0.905899 0.00278691
7.32618 20.2509 -1.87077 -0.429073 -0.903264 0.00332435
8.22847 19.8141 -1.87672 -0.440171 -0.897902 0.00472593
9.33648 19.2643 -1.88327 -0.44659 -0.894737 0.00160065
10.3337 18.7592 -1.88906 -0.455557 -0.890207 0.000452188
11.2275 18.3002 -1.89192 -0.457746 -0.889078 0.00300647
11.7775 18.0165 -1.8928 -0.460757 -0.887526 0.00101778
11.856 17.9774 -0.947661 -0.462543 -0.886596 0.00118502
10.9267 18.4608 -0.946388 -0.457014 -0.889434 0.00678007
10.0117 18.9281 -0.946317 -0.452738 -0.891626 0.00559682
9.09279 19.3915 -0.944628 -0.44691 -0.894565 0.00497762
8.09572 19.8847 -0.939039 -0.438342 -0.898787 0.00614065
7.13211 20.3452 -0.936219 -0.427221 -0.904144 0.00228119
6.21169 20.7792 -0.932821 -0.421894 -0.906629 0.00547887
5.29073 21.1963 -0.929939 -0.402199 -0.915547 0.00321298
4.34009 21.6014 -0.926464 -0.389572 -0.920985 -0.00457672
3.35508 21.9958 -0.924393 -0.35095 -0.936313 -0.0123632
2.3088 22.3736 -0.921576 -0.326682 -0.945129 -0.00309176
1.31087 22.7072 -0.919874 -0.296446 -0.955044 0.00326497
0.349696 22.9838 -0.921515 -0.234305 -0.972162 0.00121733
0.342805 22.9855 -0.921517 -0.234305 -0.972162 0.00121733
0.320106 22.9952 -0.0100816 -0.243383 -0.969917 -0.00500846
1.42848 22.6678 -0.00873073 -0.304289 -0.952552 -0.00722438
2.41301 22.3379 -0.00626905 -0.335063 -0.942189 0.00361729
3.48203 21.9409 -0.00563907 -0.35742 -0.933926 -0.0057598
4.62122 21.4798 -0.00463938 -0.383999 -0.923333 -0.000700043
5.54228 21.0816 -0.00354748 -0.409022 -0.912525 -0.000229707
6.52565 20.6325 -0.00404539 -0.422114 -0.90654 0.00235538
7.49228 20.1776 -0.00402328 -0.429189 -0.903196 0.00585732
8.4949 19.6933 -0.00461733 -0.44081 -0.897586 0.00499086
9.45116 19.2169 -0.00380617 -0.448435 -0.893802 0.00498316
10.3712 18.7511 -0.00346251 -0.455056 -0.89045 0.00478372
11.2909 18.2756 -0.00252179 -0.463429 -0.886121 0.00492159
11.6922 18.0656 -0.00236346 -0.463626 -0.886023 0.00378131
11.7815 18.0225 0.941921 -0.462153 -0.886798 0.00224705
10.8336 18.5152 0.940298 -0.458879 -0.888495 0.00263317
9.9022 18.9931 0.938217 -0.452527 -0.891748 0.00242856
8.98714 19.4525 0.935157 -0.444809 -0.895623 0.00202735
8.02964 19.9234 0.931126 -0.437121 -0.899402 0.00138842
7.09252 20.3715 0.927671 -0.425218 -0.905091 0.000374369
6.18408 20.7911 0.924278 -0.414442 -0.910075 -0.000762478
5.19441 21.2306 0.92051 -0.396782 -0.917909 -0.00275304
4.1576 21.6686 0.916251 -0.382759 -0.923814 -0.00793347
3.0472 22.1049 0.911445 -0.352821 -0.935691 -0.000622497
2.07631 22.4523 0.906994 -0.329023 -0.944318 -0.00292879
1.08564 22.7754 0.903481 -0.293133 -0.956025 -0.00949129
0.299016 22.9972 0.901832 -0.250302 -0.968145 -0.00670262
0.350248 22.9804 1.81228 -0.251069 -0.967968 -0.00147245
1.38763 22.6791 1.81872 -0.303935 -0.952664 0.00739466
2.38333 22.3449 1.82487 -0.332148 -0.943225 -0.00195316
3.35192 21.9882 1.83246 -0.351671 -0.936091 -0.00783362
4.37662 21.5741 1.83934 -0.384299 -0.923202 -0.00337919
5.39138 21.1459 1.84781 -0.399187 -0.916866 -0.00265465
6.37836 20.7019 1.85475 -0.413921 -0.910312 -0.000902007
7.32009 20.2656 1.86301 -0.425033 -0.905177 -0.000666903
8.24897 19.8178 1.86992 -0.442322 -0.896856 0.000436467
9.16275 19.3651 1.87706 -0.446724 -0.894671 -0.000985114
10.1361 18.8732 1.88207 -0.454328 -0.89083 -0.00299434
11.178 18.3383 1.88687 -0.458861 -0.888507 0.00127221
11.7892 18.0218 1.88863 -0.460816 -0.887492 0.00251186
11.824 18.0041 2.8348 -0.457481 -0.889213 -0.003183
10.9161 18.4708 2.82915 -0.456336 -0.889801 -0.00346996
9.99149 18.9454 2.82293 -0.457052 -0.889438 -0.00195273
8.9838 19.4553 2.81414 -0.44358 -0.896235 0.000705659
8.06519 19.9081 2.80666 -0.439557 -0.898214 0.00130816
7.08316 20.3777 2.79376 -0.420931 -0.907092 -0.00110303
6.14115 20.8105 2.78398 -0.413644 -0.910438 0.00135109
5.17929 21.2379 2.77145 -0.389816 -0.920891 -0.00175896
4.0998 21.6878 2.75891 -0.379236 -0.925299 0.00135859
3.07637 22.0918 2.74771 -0.349711 -0.936849 -0.00400495
2.1167 22.4372 2.73735 -0.325655 -0.945488 -0.00142999
1.16261 22.7467 2.72977 -0.275356 -0.961278 -0.011107
0.24325 23.0044 2.72348 -0.251026 -0.967913 -0.0113731
0.234239 22.9994 3.63139 -0.257145 -0.966368 0.00294681
1.23295 22.723 3.63829 -0.284842 -0.958568 -0.00362643
2.18655 22.4134 3.65037 -0.334245 -0.942473 0.00507267
3.22619 22.0356 3.66647 -0.351346 -0.936229 0.00563523
4.2848 21.6154 3.68369 -0.380031 -0.924972 0.00169323
5.29926 21.1892 3.69962 -0.398499 -0.917168 0.000770938
6.2347 20.77 3.71558 -0.41904 -0.907968 -9.01773e-05
7.21426 20.3167 3.73 -0.422313 -0.906449 0.00165241
8.27295 19.8089 3.74568 -0.440655 -0.89767 0.00345166
9.31002 19.2921 3.76003 -0.451784 -0.892126 0.00137086
10.2238 18.8258 3.76877 -0.45897 -0.888437 0.00504282
11.1153 18.3639 3.77551 -0.46327 -0.886217 0.000125463
11.7484 18.0377 3.78046 -0.45762 -0.889148 0.000338571
11.845 17.9897 4.73027 -0.462817 -0.886435 0.00581725
10.916 18.4734 4.7227 -0.462345 -0.886676 0.006477
9.98846 18.9501 4.71243 -0.454367 -0.890812 0.00213585
8.95418 19.4728 4.69812 -0.446632 -0.894718 0.000138016
7.91415 19.9843 4.68046 -0.434499 -0.900671 0.00155668
6.89946 20.4622 4.66153 -0.419396 -0.907801 -0.00204762
5.93861 20.9031 4.64177 -0.415292 -0.909682 -0.00330499
4.93968 21.3419 4.6196 -0.394257 -0.919 0.000882811
3.98721 21.7386 4.59983 -0.381227 -0.924479 -0.00206416
2.98069 22.1329 4.57652 -0.34985 -0.936798 0.00382986
1.93583 22.4979 4.5569 -0.315546 -0.94891 -0.000516619
0.956452 22.8036 4.54248 -0.283262 -0.95904 0.00208694
0.325802 22.975 4.53567 -0.243468 -0.969907 0.00207078
0.338189 22.9685 5.43361 -0.239798 -0.970814 -0.00412462
1.34077 22.6862 5.45027 -0.29898 -0.954257 0.00208354
2.3794 22.3464 5.47448 -0.320445 -0.947258 -0.00403655
3.37735 21.9862 5.50317 -0.363275 -0.931675 0.00360761
4.32062 21.6037 5.52913 -0.384491 -0.923101 0.00713911
5.26184 21.2056 5.55486 -0.400262 -0.916385 0.00539652
6.1998 20.7811 5.57919 -0.415678 -0.909512 -5.75468e-05
7.24658 20.2996 5.60619 -0.420039 -0.907503 -0.00222507
8.26596 19.8125 5.62877 -0.437442 -0.899242 -0.00281992
8.47142 19.7123 5.63278 -0.441496 -0.897262 -0.00187008
8.59801 19.6496 5.63554 -0.443726 -0.896158 -0.00279021
