-10.8525 94.2489 -3.86938 -0.464378 -0.885604 -0.00633185
-10.8335 94.2418 -2.72073 -0.443525 -0.89609 0.0175348
-10.8481 94.243 -1.56552 -0.468661 -0.883351 0.00111778
-10.8117 94.2219 -0.463014 -0.440756 -0.897517 -0.0140622
-10.8177 94.2296 0.589355 -0.424028 -0.904979 0.0338088
-10.7728 94.2391 1.59314 -0.422539 -0.905886 0.0288087
-10.7688 94.2694 2.7252 -0.441386 -0.896827 0.0295789
-10.7502 94.2881 3.78046 -0.430836 -0.901512 0.0401893
-10.6766 94.2863 4.88462 -0.388128 -0.920998 0.0298883
-10.5757 94.2726 5.95446 -0.377968 -0.925737 0.0123298
-9.4637 93.8418 6.05542 -0.344429 -0.938805 0.00381679
-8.48901 93.5883 6.05845 -0.150552 -0.988577 0.00701317
-7.34638 93.48 6.06664 -0.0126973 -0.999365 0.004763
-6.28223 93.5682 6.02861 0.184276 -0.982572 -0.00365171
-5.186 93.891 6.03216 0.345713 -0.937931 0.02772
-4.34382 94.2425 5.80256 0.445116 -0.895383 0.00958394
-4.28083 94.2724 4.79083 0.42246 -0.90637 -0.00455418
-4.28095 94.2808 3.78405 0.423192 -0.905973 -0.010991
-4.25996 94.2776 2.64889 0.426758 -0.90408 0.0219275
-4.31665 94.2299 1.53032 0.472206 -0.881288 0.0179725
-4.29186 94.2373 0.495599 0.44071 -0.897289 0.0252013
-4.28603 94.2393 -0.56771 0.44751 -0.894183 -0.0130782
-4.29133 94.2503 -1.60081 0.440843 -0.897424 -0.0169774
-4.34171 94.238 -2.66507 0.422999 -0.905739 -0.0266308
-4.37072 94.2582 -3.79052 0.416812 -0.908757 -0.0207118
-4.38325 94.2374 -4.83473 0.449319 -0.893315 -0.0100735
-4.46997 94.1946 -5.83167 0.428044 -0.903513 -0.0210536
-5.40181 93.8204 -6.03339 0.311321 -0.950018 -0.0233574
-6.41197 93.5808 -6.02475 0.194163 -0.98073 -0.0205507
-7.48423 93.4799 -6.05071 -0.0159336 -0.999654 -0.0209475
-8.51495 93.5554 -6.06065 -0.166696 -0.985743 -0.022871
-9.65359 93.7999 -6.04465 -0.254076 -0.96712 0.0111425
-10.667 94.1889 -6.00815 -0.393182 -0.919418 0.00723604
-10.8289 94.2555 -5.05113 -0.399598 -0.916517 -0.0178243
-10.8515 94.2486 -3.89352 -0.44424 -0.895431 -0.017962
-11.7109 94.7112 -3.90176 -0.491129 -0.870942 0.0119264
-11.6974 94.713 -2.80812 -0.496259 -0.868173 -0.00152219
-11.7089 94.7172 -1.78065 -0.494425 -0.869187 -0.00767567
-11.7016 94.7086 -0.776809 -0.495953 -0.868332 -0.000618688
-11.69 94.7043 0.378325 -0.502277 -0.864671 0.00787924
-11.6463 94.6907 1.43809 -0.494167 -0.868818 0.0308875
-11.6449 94.712 2.46648 -0.4743 -0.879984 0.025811
-11.6457 94.7472 3.48647 -0.474935 -0.879657 0.0246324
-11.5864 94.7328 4.54114 -0.475839 -0.879529 -0.00241002
-11.5766 94.7379 5.73589 -0.479519 -0.877309 0.0172564
-11.5582 94.7331 6.77613 -0.439335 -0.89826 0.000353076
-10.6915 94.3189 7.01438 -0.393279 -0.919407 -0.00472518
-9.69764 93.9383 7.03415 -0.332837 -0.942954 0.0075788
-8.73116 93.6497 7.0269 -0.23005 -0.97315 0.000917262
-7.52799 93.5158 7.04529 -0.0401186 -0.99721 0.0574842
-6.44198 93.569 7.01505 0.127759 -0.991713 -0.0135334
-5.44156 93.8348 7.02665 0.340584 -0.939265 0.0421113
-4.49212 94.2185 7.06644 0.441797 -0.895563 0.0490705
-3.58372 94.7013 6.92914 0.513802 -0.857364 0.0265036
-3.49658 94.7288 5.79981 0.53824 -0.842016 0.0361664
-3.41158 94.7394 4.69012 0.520823 -0.853591 -0.0112551
-3.39761 94.7284 3.52524 0.495469 -0.868405 0.00199005
-3.39454 94.7396 2.48009 0.51356 -0.857596 -0.0249299
-3.4834 94.708 1.47866 0.532756 -0.846216 -0.00946854
-3.41886 94.7383 0.464255 0.51141 -0.858808 0.0284464
-3.42443 94.7159 -0.628521 0.520289 -0.853667 0.00337878
-3.43582 94.7183 -1.68285 0.536626 -0.843673 0.0157789
-3.49378 94.7158 -2.81735 0.551301 -0.834206 -0.0129167
-3.51966 94.7232 -3.85505 0.549479 -0.835251 -0.0188929
-3.55007 94.7189 -4.93579 0.587335 -0.808896 -0.0269233
-3.58305 94.7117 -5.9413 0.547274 -0.836702 0.0205185
-3.63082 94.6611 -6.98825 0.527524 -0.849469 0.0110194
-4.50882 94.1704 -7.01449 0.456642 -0.88837 -0.0477084
-5.51021 93.7979 -7.01737 0.247681 -0.968781 -0.0108174
-6.51898 93.5936 -7.02233 0.177178 -0.983351 -0.040355
-7.6162 93.519 -7.04794 0.00164205 -0.999184 -0.0389037
-8.65993 93.5757 -7.02567 -0.12706 -0.990625 -0.00796665
-9.75402 93.8331 -7.01939 -0.312006 -0.949927 -0.00918155
-10.6902 94.1884 -7.02227 -0.430646 -0.902456 0.00448353
-11.5974 94.6482 -6.97739 -0.467 -0.88394 -0.0235085
-11.7217 94.7088 -5.93884 -0.493767 -0.869516 0.00144911
-11.7093 94.7028 -4.79954 -0.49183 -0.870564 -0.00401336
-11.7107 94.7108 -3.94724 -0.483003 -0.875508 0.0128436
-10.3687 94.0256 -3.64787 -0.405177 -0.914098 -0.0160063
-9.41691 93.701 -3.64269 -0.284152 -0.958317 -0.0297675
-8.38296 93.4835 -3.63607 -0.141031 -0.988748 -0.0498825
-7.26972 93.4031 -3.63542 0.0295833 -0.998939 -0.0352809
-6.17154 93.5867 -3.63987 0.238504 -0.971114 -0.00737435
-5.14549 93.9228 -3.64484 0.369425 -0.929112 -0.0165974
-4.88147 94.0298 -3.6464 0.394785 -0.918608 -0.0174245
-4.89331 94.0199 -4.56282 0.386539 -0.922168 0.013934
-5.91807 93.6642 -4.55353 0.241355 -0.970113 -0.0250714
-7.08459 93.451 -4.54517 0.0769557 -0.997032 -0.00227516
-8.16408 93.4826 -4.54334 -0.0994587 -0.993986 -0.0458319
-9.1991 93.6589 -4.5486 -0.258151 -0.965492 -0.0344022
-10.3085 94.0261 -4.55736 -0.349347 -0.93688 -0.0145692
-10.3471 94.0408 -4.55775 -0.38002 -0.924366 -0.0336341
-10.2702 94.0242 -5.46638 -0.362122 -0.932075 0.0101787
-9.2459 93.6903 -5.44861 -0.227564 -0.973399 -0.0266461
-8.17905 93.5083 -5.44067 -0.0946434 -0.995264 -0.0221746
-7.01357 93.4757 -5.4459 0.0844286 -0.995049 -0.0524301
-5.94133 93.6732 -5.45886 0.223747 -0.974602 -0.0094122
-5.15263 93.9048 -5.47367 0.361393 -0.932318 0.0133507
-4.82278 94.03 -2.73042 0.393581 -0.918464 -0.0389595
-5.85544 93.6505 -2.72833 0.279776 -0.959762 -0.024139
-6.86065 93.4349 -2.72632 0.0824519 -0.996594 -0.00112113
-7.96485 93.4122 -2.72581 -0.0908187 -0.994908 -0.0437126
-8.96212 93.5715 -2.7297 -0.213943 -0.976228 -0.0347537
-9.94313 93.8604 -2.735 -0.34556 -0.938394 0.00230493
-10.2882 93.9917 -2.73672 -0.373925 -0.927189 0.0223767
-10.3241 93.9983 -1.82583 -0.414609 -0.909955 -0.00903343
-9.31334 93.6494 -1.81997 -0.25027 -0.96817 -0.00338748
-8.33112 93.4552 -1.81916 -0.112364 -0.993666 0.00114664
-7.28326 93.3954 -1.81436 0.0663132 -0.997129 0.0365652
-6.25848 93.5302 -1.81483 0.215877 -0.976281 -0.0165277
-5.15508 93.863 -1.81571 0.387977 -0.921668 -0.00115615
-4.76737 94.0326 -1.81566 0.414829 -0.90989 -0.00427086
-4.77254 94.0077 -0.899114 0.410882 -0.911681 0.00368297
-5.72168 93.661 -0.902828 0.267138 -0.963469 0.019119
-6.78082 93.4572 -0.9041 0.123738 -0.992029 0.023826
-7.88615 93.4335 -0.905566 -0.0469589 -0.998796 0.014196
-9.03681 93.5909 -0.907846 -0.221865 -0.975077 -0.000392524
-10.1344 93.9199 -0.910072 -0.329271 -0.944132 0.0139852
-10.2166 93.9519 -0.910224 -0.413183 -0.910548 0.0135292
-10.2446 93.9672 0.0029928 -0.376886 -0.925445 0.0388338
-9.26497 93.6694 0.00465334 -0.231874 -0.9725 0.021853
-8.11072 93.4418 0.00585474 -0.101835 -0.993483 -0.0512064
-7.05111 93.4372 0.00417423 0.0851254 -0.995418 -0.0435429
-6.03449 93.611 0.0082545 0.206825 -0.976069 0.0671728
-4.96482 93.9313 0.0128284 0.354969 -0.934642 -0.0210081
-4.74098 94.0233 0.013978 0.379982 -0.924769 -0.0203773
-4.8413 93.9831 0.923446 0.384214 -0.92296 -0.0229057
-5.94715 93.6557 0.918968 0.235335 -0.971892 -0.00659435
-6.97744 93.4524 0.91515 0.115121 -0.993345 0.00365053
-8.02582 93.4257 0.913987 -0.190319 -0.98172 -0.00210266
-9.17036 93.6667 0.912971 -0.226768 -0.973936 -0.00500552
-10.299 94.0113 0.912392 -0.35185 -0.936006 0.00971698
-10.3339 94.0251 0.912318 -0.367657 -0.929576 0.0267833
-10.2334 94.0083 1.82217 -0.366552 -0.930196 0.0193482
-9.25363 93.698 1.82391 -0.229994 -0.972686 -0.0313795
-8.23175 93.4827 1.82899 -0.151724 -0.988309 0.0150052
-7.17634 93.4298 1.828 0.0337129 -0.9994 0.00797615
-6.00638 93.6195 1.8296 0.233307 -0.972165 -0.0215183
-4.92339 93.9602 1.83121 0.34307 -0.93919 -0.0149924
-4.87468 93.978 1.83137 0.373017 -0.927824 0.00111231
-4.84503 94.0146 2.73826 0.396175 -0.918034 0.016076
-5.94207 93.6191 2.73541 0.259445 -0.965632 0.0156062
-7.07226 93.42 2.73776 0.0681418 -0.996404 0.0503488
-8.09297 93.4953 2.73697 -0.138094 -0.990108 0.0248176
-9.25872 93.7025 2.7327 -0.236136 -0.971149 -0.0333201
-10.2246 94.0273 2.73168 -0.394086 -0.918808 0.0220929
-10.164 94.0197 3.64131 -0.365304 -0.929559 0.0497329
-9.17976 93.6868 3.64056 -0.24517 -0.968997 0.0305914
-8.15926 93.5015 3.636 -0.134706 -0.990862 -0.00677125
-7.04222 93.4367 3.64454 0.00249096 -0.999469 0.0324764
-5.9672 93.6155 3.6436 0.232667 -0.972309 -0.0219519
-4.91841 93.9857 3.6482 0.404731 -0.914383 -0.00976827
-4.75947 94.0589 3.64907 0.416918 -0.908937 -0.00367704
-4.74823 94.0579 4.55707 0.392038 -0.919903 -0.0092304
-5.83092 93.6427 4.55144 0.252651 -0.967526 -0.00778691
-6.8481 93.4684 4.54596 0.0984709 -0.995098 0.00916533
-7.88445 93.4844 4.54392 -0.0920317 -0.995238 0.0321044
-8.92138 93.6489 4.54314 -0.249138 -0.967833 0.035075
-9.88775 93.9617 4.54624 -0.336162 -0.93961 0.0642537
-10.124 94.0464 4.54813 -0.367931 -0.92812 0.0567372
-10.1281 94.0857 5.45449 -0.363973 -0.931228 0.0183978
-9.15795 93.7332 5.44516 -0.280247 -0.959928 -5.12216e-05
-8.11622 93.5188 5.43986 -0.103659 -0.99455 0.0111934
-7.04641 93.4758 5.4422 0.0392394 -0.999103 -0.0158898
-5.88124 93.6468 5.454 0.212047 -0.976537 0.0375822
-5.03047 93.9298 5.46844 0.34758 -0.9371 0.0321166
-4.91487 93.9733 5.47063 0.378079 -0.92567 0.0138493
